1.281773 1.240557 1.231682 1.087652 1.043908 1.044878 1.059411 0.983523 0.976377 0.942116 0.994524 0.949150 0.886219 0.889774 0.936414 0.884080 0.878690 0.868011 0.870116 0.828075 0.813714 0.814886 0.796198 0.793314 0.808385 0.837362 0.821044 0.794894 0.741143 0.761165 0.693471 0.691811 0.723570 0.659969 0.670633 0.671948 0.685025 0.648601 0.690795 0.666506 0.635993 0.625713 0.654125 0.658219 0.608673 0.649832 0.624710 0.613304 0.601502 0.645591 0.651680 0.639473 0.631073 0.658366 0.646283 0.706215 0.722960 0.703822 0.695834 0.661583 0.711270 0.736113 0.744561 0.744837 0.722055 0.793537 0.784582 0.784721 0.841861 0.838841 0.779487 0.673384 0.606698 0.621565 0.592890 0.666495 0.666026 0.649022 0.624754 0.643778 0.700160 0.736026 0.718244 0.740175 0.735063 0.724448 0.840141 0.891351 0.903294 0.936651 1.020741 1.078130 1.082292 1.078764 1.124650 1.080074 1.173231 1.165689 1.112557 1.170711 1.157517 1.238275 1.332819 1.255911 1.237339 1.284277 1.252671 1.302296 1.394468 1.350905 1.306035 1.364589 1.413389 1.457383 1.541748 1.429130 1.435405 1.590095 1.474744 1.481429 1.563200 1.565961 1.615459 1.623629 1.559888 1.527627 1.524627 1.542747 1.585780 1.655440 1.611311 1.666720 1.698537 1.642463 1.688299 1.609052 1.741184 1.680015 1.669040 1.750540 1.746070 1.872661 1.919975 1.944872 1.946705 1.880028 1.859290 1.991486 2.034834 1.963422 1.898440 2.028644 2.024024 2.114991 2.081820 1.894759 1.948220 2.109750 2.023186 1.988302 2.113146 2.031098 2.042343 2.114493 2.187045 2.249839 2.248285 2.360811 2.217703 2.335242 2.441887 2.428743 2.322855 2.434354 2.435100 2.407997 2.311326 2.408539 2.343392 2.412920 2.543174 2.554425 2.601393 2.582502 2.464347 2.485163 2.523233 2.647808 2.744285 2.677514 2.604318 2.626041 2.878663 2.752370 2.789357 2.922148 2.777028 2.844519 2.868012 2.745267 2.886186 2.867791 2.811575 2.847398 2.855032 2.932764 3.052703 3.073302 3.116103 2.971822 2.960014 3.015046 2.971883 3.054012 2.903680 2.910605 2.910206 2.933561 3.146372 2.988451 3.123145 2.984109 3.144477 2.995728 3.089776 3.204792 3.166040 3.174604 3.198593 3.187497 3.118669 3.010264 3.120602 3.277077 3.263759 3.065098 3.198396 3.246214 3.408054 3.236162 3.338814 3.295095 3.490434 3.359235 3.560431 3.312970 3.522175 3.425548 3.358234 3.186022 3.361253 3.515104 3.406006 3.575486 3.442550 3.507999 3.543964 3.398294 3.430239 3.503183 3.670309 3.556824 3.645903 3.758612 3.712985 3.633093 3.691754 3.560609 3.479638 3.635900 3.418820 3.519634 3.400507 3.192263 3.273956 3.395076 3.482011 3.633602 3.601950 3.576361 3.943506 3.978944 4.007264 3.853450 3.943918 3.998642 3.706487 3.738777 3.911709 3.837608 3.972839 3.854315 3.779679 3.722677 3.945451 3.964339 4.050570 4.026605 3.883183 4.117997 3.984863 3.841947 4.116801 3.951501 4.103750 3.883535 3.904532 4.160656 3.958748 4.072407 3.847592 4.083629 4.082709 3.801396 3.911920 4.113162 4.132230 3.907075 3.763433 4.134500 3.892828 3.899178 4.093407 4.135156 3.921712 4.060178 4.132610 3.787451 4.042601 3.770181 3.960509
1.317092 1.299519 1.184586 1.207236 1.102028 1.092706 1.001640 1.009445 1.008380 1.021735 0.974098 0.971936 0.947256 0.931280 0.942316 0.918644 0.853435 0.844101 0.813268 0.819557 0.836992 0.818442 0.807687 0.839610 0.839537 0.818418 0.795902 0.743973 0.772713 0.704258 0.710817 0.668653 0.655643 0.658286 0.703623 0.631632 0.687707 0.639863 0.659689 0.673240 0.629510 0.622063 0.637555 0.628348 0.593406 0.604355 0.658222 0.650644 0.613320 0.625922 0.600845 0.627335 0.660889 0.651093 0.640968 0.670431 0.694242 0.686818 0.673631 0.661542 0.713081 0.727961 0.705117 0.708882 0.760756 0.775771 0.750121 0.763885 0.805915 0.835320 0.732581 0.701892 0.651887 0.597278 0.603089 0.640534 0.642616 0.631338 0.618881 0.680647 0.689692 0.703972 0.684811 0.740153 0.741688 0.779509 0.788910 0.916129 0.958867 0.949749 1.014252 1.079489 1.085939 1.051514 1.104990 1.095744 1.193439 1.168699 1.152617 1.171606 1.277049 1.231674 1.226663 1.305186 1.323550 1.306520 1.316525 1.286746 1.312979 1.307057 1.316247 1.335974 1.437969 1.397622 1.427752 1.566216 1.524044 1.514819 1.455280 1.474512 1.468026 1.592500 1.537211 1.535744 1.510147 1.600574 1.510192 1.562025 1.613715 1.584751 1.536101 1.667729 1.736257 1.697308 1.698255 1.679728 1.721880 1.675404 1.714344 1.702262 1.720153 1.862868 1.896926 1.920678 1.941921 1.962493 1.867201 1.884204 1.983162 1.993105 2.024709 1.881252 2.007513 1.940617 1.969841 2.022027 2.022206 1.924007 1.955187 2.079415 2.155768 2.207211 2.154144 2.081878 2.104588 2.189819 2.138028 2.160640 2.178541 2.201119 2.412691 2.213399 2.339483 2.353988 2.377900 2.468338 2.475650 2.435506 2.461639 2.321089 2.436690 2.511922 2.336339 2.495455 2.594661 2.570620 2.637527 2.473066 2.642750 2.592800 2.674727 2.683649 2.842820 2.750515 2.681622 2.887431 2.908475 2.862859 2.900559 2.945536 2.824313 2.735718 2.909012 2.963516 2.994224 3.000286 3.019324 2.985466 2.833486 2.854687 2.877756 2.928555 2.816385 2.887141 2.985085 3.072961 2.925396 2.974765 2.892008 3.035687 3.131675 3.037532 3.139377 2.934622 3.096537 3.053233 2.993783 3.041000 3.087306 3.106921 3.100538 3.078035 3.205541 3.201794 3.259744 3.158710 3.144460 3.163616 3.368103 3.253888 3.366399 3.432835 3.247697 3.223837 3.233531 3.478705 3.175977 3.150598 3.116675 3.225732 3.370039 3.238101 3.249578 3.331771 3.421799 3.439962 3.506311 3.600042 3.699233 3.674445 3.547524 3.461837 3.782674 3.556279 3.775467 3.773907 3.738885 3.586445 3.614499 3.472796 3.164341 3.365135 3.366975 3.169898 3.483787 3.293846 3.623709 3.690365 3.627874 3.663735 3.826787 3.631365 3.595962 3.777919 3.647273 3.682688 3.805396 3.843188 3.651454 3.863684 3.638793 3.915330 3.951846 4.012918 3.825958 3.725680 4.017310 3.686602 3.857598 3.714213 4.054029 3.850856 3.882250 3.823128 3.876378 4.019389 3.846411 4.102920 4.068265 3.811181 3.917831 4.041365 4.114601 3.898789 3.934644 3.920465 4.030144 3.881502 4.066816 3.765134 3.670924 3.802854 3.729522 3.901659 3.774707 3.779738 3.735391 3.999610 3.909541 3.792988 3.909235
1.334820 1.246876 1.293802 1.198762 1.136576 1.047190 1.054896 1.047929 1.029473 0.976132 0.997498 0.948085 0.934953 0.895555 0.876372 0.942381 0.881932 0.892388 0.888861 0.837980 0.883584 0.877617 0.795307 0.812431 0.850385 0.779084 0.788923 0.746984 0.724897 0.682555 0.684854 0.708993 0.649242 0.675200 0.629296 0.663422 0.614269 0.624230 0.618130 0.652104 0.637560 0.597165 0.638185 0.575236 0.628826 0.609440 0.600346 0.631797 0.646222 0.620872 0.599820 0.611184 0.604376 0.642601 0.667180 0.673730 0.672722 0.632055 0.669617 0.677735 0.643347 0.669769 0.738423 0.726254 0.725444 0.762502 0.742268 0.809581 0.823295 0.783093 0.787525 0.712452 0.689952 0.631303 0.645383 0.601362 0.638509 0.631241 0.604821 0.651309 0.673429 0.705118 0.713184 0.696443 0.689944 0.792987 0.856747 0.897892 0.909815 1.002068 1.057967 1.075965 1.087653 1.097973 1.103414 1.105467 1.133852 1.163202 1.216768 1.160776 1.270889 1.285497 1.245305 1.257517 1.233149 1.270069 1.332587 1.367739 1.367232 1.302687 1.347295 1.390760 1.417011 1.408606 1.514018 1.569865 1.508409 1.454435 1.492630 1.574288 1.562929 1.577407 1.462361 1.478744 1.518517 1.638689 1.602285 1.655241 1.655539 1.539762 1.671834 1.592312 1.729835 1.707142 1.653460 1.686743 1.749113 1.793569 1.698541 1.745802 1.738397 1.747601 1.870887 1.877839 1.902063 1.807399 1.811852 1.888694 1.940243 1.945270 1.931379 2.016478 1.901628 2.026660 2.027426 2.005420 1.946974 2.060227 2.036821 2.064182 2.148419 2.069238 2.028817 2.033965 2.119823 2.096907 2.088413 2.126590 2.258630 2.207526 2.210571 2.317949 2.411844 2.431426 2.268780 2.333228 2.430261 2.395739 2.333577 2.366123 2.448968 2.413513 2.499811 2.398493 2.413222 2.573762 2.562624 2.518450 2.719470 2.540628 2.756567 2.752222 2.644412 2.857691 2.653302 2.844153 2.734923 2.685420 2.811377 2.923604 2.928432 2.813529 2.887969 2.924262 2.816052 2.772259 2.783735 2.815141 2.951495 2.799234 2.775106 2.905963 2.976955 2.857853 2.821604 3.009526 2.836709 2.856260 2.930143 2.952251 2.925985 2.916989 2.930933 3.076089 3.074262 2.916916 3.114230 3.077661 2.971254 2.996222 2.922215 3.221494 3.121089 3.204765 3.225051 2.997274 3.064432 3.336115 3.243083 3.320010 3.356057 3.130800 3.161650 3.353923 3.191216 3.155037 3.165358 3.260345 3.257700 3.306468 3.113731 3.193502 3.273329 3.412229 3.307224 3.521538 3.416385 3.481175 3.690383 3.599219 3.723076 3.489197 3.718846 3.613467 3.729338 3.690315 3.807523 3.497106 3.544189 3.302258 3.248803 3.322405 3.210986 3.344410 3.161761 3.249437 3.347029 3.624923 3.507498 3.655227 3.763577 3.737020 3.653929 3.703111 3.723808 3.635834 3.773230 3.762874 3.892060 3.632536 3.878771 3.565243 3.860982 3.947277 3.856047 3.741196 3.647721 3.774715 3.800109 3.943615 3.831979 3.999173 3.853587 3.965905 3.686872 3.751397 3.922017 3.786085 3.897164 3.820651 3.891366 3.912257 3.998563 3.846640 3.884741 3.917382 3.823021 3.916271 3.912628 3.654867 3.876892 3.819199 3.628439 3.719847 3.993121 3.910705 3.736066 3.948002 3.756841 3.736653 3.726062
1.387159 1.348881 1.186737 1.130292 1.173819 1.088281 1.027948 1.049933 1.005710 1.047286 0.977926 0.937827 0.950133 0.942838 0.925861 0.910174 0.937360 0.876513 0.908263 0.829566 0.839854 0.816660 0.798152 0.829516 0.799478 0.770122 0.755224 0.712741 0.726312 0.675642 0.672427 0.630095 0.673033 0.632792 0.634916 0.621633 0.658898 0.612022 0.627615 0.626207 0.617578 0.614666 0.582171 0.606414 0.612954 0.628092 0.629094 0.607723 0.637815 0.645729 0.634956 0.645427 0.600181 0.642102 0.644829 0.655574 0.640661 0.643233 0.656828 0.655797 0.658085 0.663177 0.697690 0.699383 0.690460 0.746796 0.751771 0.796397 0.803619 0.772090 0.785608 0.748822 0.674087 0.663759 0.625748 0.587617 0.591353 0.579376 0.601647 0.671907 0.700584 0.701654 0.722073 0.699501 0.747989 0.785153 0.826424 0.858056 0.910976 0.996696 1.008335 1.006187 1.095029 1.163136 1.084869 1.174302 1.121547 1.174214 1.209898 1.251396 1.276868 1.209318 1.235174 1.261950 1.278148 1.319038 1.245540 1.326922 1.334174 1.288489 1.340388 1.415657 1.470262 1.447951 1.442442 1.559943 1.476906 1.489732 1.462799 1.448722 1.493394 1.444432 1.466160 1.484111 1.494784 1.621735 1.525749 1.575399 1.624903 1.532763 1.644607 1.717722 1.668665 1.767317 1.698529 1.775357 1.659668 1.685626 1.706339 1.800400 1.810345 1.696495 1.740542 1.767796 1.822611 1.924535 1.871413 1.857950 1.905587 1.812082 1.845768 1.873725 1.957807 1.907464 2.002282 1.909868 1.987635 1.900122 1.933704 1.945548 2.003268 2.165839 2.174446 2.041512 2.106074 2.137576 2.108379 2.247584 2.176983 2.148658 2.228501 2.263167 2.281448 2.426072 2.390128 2.489490 2.317205 2.360738 2.334244 2.427317 2.329606 2.435248 2.339504 2.468014 2.528760 2.369163 2.577082 2.537668 2.495193 2.595022 2.546691 2.552504 2.682726 2.665853 2.806114 2.725462 2.649140 2.650649 2.769816 2.752787 2.755941 2.936639 2.848360 2.955507 2.942874 2.883299 2.868309 2.916420 2.737819 2.797392 2.826836 2.762923 2.799840 2.954458 2.859874 2.981412 2.838998 2.979183 2.812458 2.969591 3.060585 2.988904 2.800362 3.017751 2.982655 2.836922 2.998581 3.016712 3.008170 2.970637 3.059853 3.171526 3.171567 3.113426 3.209679 3.248825 3.326887 3.214975 3.319637 3.130576 3.334159 3.364458 3.203388 3.332356 3.341568 3.101140 3.294354 3.055707 3.178203 3.291702 3.167059 3.434117 3.175313 3.390489 3.274837 3.387304 3.251156 3.411174 3.339702 3.606544 3.437393 3.769822 3.729059 3.552351 3.688293 3.633374 3.508613 3.489274 3.580319 3.433585 3.403138 3.320637 3.036951 3.407469 3.254252 3.471291 3.381515 3.496243 3.520821 3.416229 3.559494 3.771840 3.794156 3.546958 3.478111 3.512201 3.581590 3.580285 3.765567 3.588144 3.553367 3.686672 3.650330 3.739593 3.721850 3.816177 3.666810 3.754528 3.641877 3.654276 3.936688 3.815950 3.962255 3.999787 3.893060 3.964845 4.082238 4.003595 3.788595 3.733997 4.032791 3.814240 3.979045 3.849857 3.871345 3.949164 3.793380 3.747563 3.835308 3.834662 3.845066 3.882096 3.669314 3.912660 3.796604 3.766015 3.873100 3.802527 3.591960 3.651342 3.670687
1.331919 1.323838 1.283984 1.161035 1.104288 1.101160 1.060463 1.052027 0.983379 0.998654 0.968331 0.937543 0.970663 0.957300 0.937191 0.954576 0.873323 0.914731 0.837331 0.879328 0.812983 0.832901 0.820540 0.784651 0.803460 0.755486 0.734317 0.733491 0.731835 0.712647 0.661191 0.645171 0.633622 0.645768 0.639963 0.634050 0.635286 0.585848 0.612938 0.603466 0.576412 0.624001 0.611120 0.618991 0.620633 0.641188 0.628794 0.626474 0.605315 0.638924 0.632602 0.623071 0.614733 0.651554 0.625460 0.640588 0.619960 0.594491 0.599673 0.632767 0.636000 0.634112 0.683646 0.667474 0.717011 0.746418 0.705615 0.792062 0.768326 0.776393 0.684190 0.724601 0.696839 0.661174 0.634033 0.572431 0.604422 0.613818 0.607240 0.689547 0.689686 0.680880 0.718954 0.699084 0.701819 0.778078 0.772247 0.908989 0.971224 1.013072 1.038046 1.068574 1.068586 1.156715 1.120410 1.114396 1.158459 1.179526 1.163388 1.261961 1.208198 1.307378 1.215283 1.285784 1.287705 1.254170 1.329951 1.294519 1.354856 1.301438 1.340985 1.409478 1.452884 1.410264 1.529358 1.451842 1.533249 1.524542 1.594530 1.560306 1.513540 1.570337 1.563627 1.478975 1.628897 1.600876 1.567483 1.579406 1.580056 1.570927 1.678888 1.575608 1.735859 1.713272 1.622362 1.756119 1.696898 1.720744 1.825409 1.759671 1.667332 1.740528 1.732636 1.746822 1.853344 1.822207 1.897250 1.785097 1.860259 1.803375 1.816741 1.951535 1.928883 2.000092 1.951371 1.856449 1.832830 1.952821 2.069409 1.956384 1.959169 2.090082 2.036047 1.999626 2.174566 2.034476 2.216191 2.092047 2.173312 2.129930 2.266136 2.175390 2.205984 2.291118 2.325121 2.443382 2.409501 2.539005 2.536959 2.541290 2.345135 2.331461 2.241095 2.443426 2.450186 2.405729 2.498256 2.544176 2.524165 2.704036 2.713003 2.697848 2.703418 2.744042 2.689202 2.831335 2.824254 2.820849 2.759788 2.643652 2.602496 2.704516 2.836063 2.756694 2.649476 2.792489 2.628724 2.665494 2.882449 2.653067 2.749221 2.914353 2.860778 2.932805 2.920703 2.979687 2.847008 2.743186 2.828329 2.963726 3.011011 2.861617 2.999915 2.775092 2.908064 2.862537 2.941328 3.033401 2.940759 2.861702 2.978124 2.920757 3.088319 3.049342 3.128826 3.191798 3.027810 3.056100 3.235477 3.177722 3.074606 3.240847 3.047903 3.230777 3.277461 3.049675 3.204230 3.081670 3.119410 3.262745 3.248891 3.130549 3.277211 3.401985 3.340713 3.258254 3.361997 3.555796 3.576834 3.557384 3.395826 3.579763 3.527617 3.650378 3.405935 3.645145 3.462227 3.549327 3.293665 3.442848 3.167813 3.094144 3.118881 3.215348 3.397546 3.395153 3.320010 3.535676 3.334350 3.496780 3.608528 3.629414 3.753789 3.506605 3.619287 3.418057 3.461571 3.583980 3.692196 3.756665 3.570333 3.800077 3.681947 3.800479 3.694944 3.587072 3.525156 3.831683 3.768568 3.660974 3.863784 3.932364 3.931607 3.752652 3.719780 3.937380 3.788346 3.957373 3.704066 3.973880 3.845340 3.684910 3.592978 3.830294 3.664090 3.685147 3.515189 3.475761 3.779372 3.457330 3.641549 3.692469 3.567338 3.711267 3.865700 3.810477 3.732056 3.739126 3.683429 3.595257 3.588677
1.347349 1.314283 1.305772 1.225229 1.162298 1.119946 1.062903 1.026188 1.084881 0.991695 1.055955 1.002869 0.929620 0.983512 0.967455 0.956782 0.862035 0.852356 0.835587 0.860970 0.847399 0.795299 0.831058 0.790097 0.780313 0.727218 0.740754 0.721496 0.683160 0.689133 0.623501 0.636279 0.652500 0.620325 0.594317 0.641842 0.582048 0.580335 0.618420 0.579925 0.595249 0.576689 0.617996 0.607385 0.609176 0.632059 0.641881 0.643968 0.628642 0.628967 0.640139 0.648282 0.614808 0.594723 0.637137 0.617476 0.582187 0.579794 0.622311 0.618542 0.655805 0.641370 0.685608 0.696352 0.671874 0.661647 0.717968 0.727871 0.768457 0.724598 0.719222 0.655200 0.620161 0.592660 0.585256 0.558528 0.567308 0.580518 0.641863 0.686458 0.671686 0.682267 0.701891 0.751188 0.737434 0.744535 0.797007 0.885953 0.928685 1.015922 1.107868 1.153623 1.110569 1.193448 1.190369 1.135400 1.103050 1.205187 1.203958 1.243364 1.195110 1.275618 1.314729 1.260542 1.303217 1.214128 1.231576 1.249490 1.334985 1.275484 1.413646 1.471177 1.381638 1.504884 1.523991 1.489397 1.572342 1.498490 1.484685 1.560816 1.502331 1.471397 1.579074 1.623119 1.548058 1.603666 1.635079 1.633873 1.573670 1.568781 1.551104 1.590968 1.619252 1.710151 1.615489 1.750708 1.721816 1.769482 1.818048 1.781112 1.702006 1.824101 1.852509 1.845025 1.776323 1.786252 1.819010 1.758530 1.833173 1.843408 1.785843 1.877720 1.822351 1.816227 1.941487 1.947806 1.915003 1.963305 1.958449 1.947069 1.998772 1.980596 2.040564 1.968412 2.129065 2.133997 2.041709 2.070150 2.088241 2.097042 2.230146 2.178508 2.281287 2.358094 2.365291 2.285838 2.393521 2.311790 2.543699 2.548082 2.516708 2.308877 2.453658 2.467830 2.341222 2.401127 2.403193 2.481583 2.597263 2.619321 2.625410 2.678992 2.496368 2.611207 2.513706 2.644031 2.639593 2.582969 2.668429 2.562784 2.737090 2.676723 2.575163 2.672753 2.698329 2.618561 2.781905 2.800609 2.731565 2.823951 2.598792 2.658138 2.764214 2.669615 2.671824 2.816409 2.917395 2.765159 2.951046 2.762628 2.893470 2.759706 2.724692 2.819744 2.926754 2.714454 2.987127 2.806826 2.911720 2.970852 2.961729 2.853700 2.953615 2.870702 2.990508 3.152521 3.169501 3.169476 3.022962 3.020774 3.048079 3.212457 3.086150 2.966698 3.060307 3.206246 3.010352 3.040459 3.228687 3.159708 3.102262 3.094940 3.221778 3.287748 3.232589 3.472252 3.483194 3.298043 3.555582 3.587442 3.684310 3.649303 3.458703 3.674105 3.384686 3.550121 3.589419 3.369793 3.366554 3.334510 3.335686 3.262017 3.058569 3.151520 3.264113 3.257380 3.326184 3.404552 3.580996 3.584771 3.363775 3.512499 3.448460 3.420404 3.455881 3.397934 3.667736 3.443291 3.567883 3.449365 3.585492 3.425422 3.767860 3.683819 3.508788 3.497684 3.560494 3.731679 3.544488 3.705000 3.855616 3.848174 3.904110 3.719468 3.843014 3.674947 3.870051 3.771058 3.687957 3.872651 3.809367 3.906911 3.624886 3.725543 3.692093 3.679701 3.620156 3.520098 3.503551 3.586775 3.615495 3.409917 3.502037 3.496037 3.714911 3.662844 3.565910 3.631464 3.400585 3.685274 3.613412
1.365617 1.396361 1.368544 1.276140 1.200755 1.162822 1.085714 1.068524 1.096843 1.023353 1.055141 1.042746 1.022122 0.943873 0.933953 0.892652 0.917282 0.851359 0.852121 0.815553 0.845856 0.783478 0.783980 0.753679 0.738587 0.765119 0.732679 0.712098 0.702177 0.684019 0.630587 0.635556 0.590906 0.633997 0.582669 0.621652 0.572569 0.597552 0.568936 0.609278 0.611208 0.585469 0.617712 0.613079 0.592294 0.594835 0.624068 0.597848 0.644237 0.602356 0.634718 0.596503 0.641149 0.633407 0.598709 0.574157 0.589745 0.558170 0.601422 0.584095 0.635959 0.641763 0.629772 0.646435 0.667057 0.648654 0.685454 0.710523 0.715523 0.685804 0.624280 0.619158 0.575678 0.569159 0.524811 0.578315 0.569560 0.587708 0.648961 0.673064 0.698922 0.667159 0.736400 0.750376 0.755034 0.749561 0.786313 0.818156 0.934698 1.062271 1.054485 1.098725 1.108644 1.158090 1.133480 1.103521 1.134302 1.146518 1.158727 1.205578 1.240796 1.291907 1.272096 1.248094 1.291539 1.222517 1.255079 1.238087 1.256341 1.346420 1.365305 1.409372 1.419334 1.514861 1.422531 1.412622 1.522452 1.453103 1.474673 1.477127 1.579489 1.563046 1.494220 1.630165 1.539928 1.511783 1.610656 1.557507 1.598133 1.691889 1.626084 1.665917 1.700151 1.640150 1.752896 1.702897 1.648680 1.650411 1.649260 1.665003 1.672656 1.687357 1.771912 1.763649 1.859499 1.890817 1.871061 1.753468 1.746057 1.799665 1.801559 1.821885 1.925802 1.815574 1.997021 1.881266 1.841507 1.945803 1.843476 1.970286 1.977550 2.022533 1.963705 1.965001 1.970415 2.007537 2.147305 2.088159 2.145306 2.238303 2.089265 2.142747 2.189973 2.149613 2.192809 2.424362 2.297413 2.288583 2.318583 2.401470 2.351894 2.443728 2.433327 2.384031 2.306004 2.274493 2.330732 2.438395 2.311023 2.344945 2.392024 2.461835 2.643816 2.485692 2.560445 2.608755 2.675267 2.626165 2.525231 2.647994 2.603919 2.676642 2.649194 2.794603 2.738449 2.526809 2.714374 2.742862 2.768533 2.755554 2.629871 2.765775 2.659398 2.832941 2.759569 2.890779 2.767632 2.774419 2.862066 2.701817 2.845854 2.904033 2.844494 2.892840 2.895664 2.806085 2.697380 2.823003 2.933288 2.938357 2.919966 2.917017 3.018756 2.945281 3.031588 3.173848 3.069379 3.010586 3.149865 3.150305 3.078842 3.120122 3.019281 3.006636 3.164045 3.000365 3.061216 2.961298 2.988549 3.198186 3.221384 3.069545 3.362974 3.363119 3.204552 3.250768 3.196089 3.520712 3.357258 3.648622 3.416108 3.377738 3.527118 3.328526 3.486424 3.293351 3.233304 3.245523 3.411409 3.386976 3.162975 3.043374 3.122573 3.192122 3.350068 3.350324 3.417404 3.504142 3.476833 3.517506 3.380030 3.238594 3.359795 3.311198 3.423108 3.396852 3.597837 3.537464 3.367504 3.393754 3.352097 3.389400 3.509300 3.622187 3.539813 3.431992 3.789581 3.725907 3.813227 3.588652 3.674975 3.492987 3.673580 3.776585 3.576862 3.866468 3.601882 3.757481 3.671756 3.706663 3.822642 3.494702 3.578810 3.623538 3.387459 3.609009 3.426616 3.401407 3.434016 3.383603 3.623076 3.437719 3.569181 3.390957 3.451707 3.423735 3.645734 3.595340 3.359116 3.313866 3.575254
1.473477 1.439143 1.292119 1.359362 1.315938 1.154498 1.124418 1.086059 1.115282 1.099156 0.990627 1.041930 0.968941 0.997456 0.925848 0.901952 0.935559 0.909036 0.823162 0.853974 0.837094 0.821035 0.779942 0.736624 0.740178 0.704108 0.742171 0.724892 0.710465 0.664147 0.603694 0.608596 0.586647 0.616388 0.608588 0.600685 0.551275 0.561514 0.577479 0.610607 0.568008 0.580210 0.592937 0.588601 0.581300 0.591212 0.623485 0.586442 0.588732 0.580848 0.611808 0.612128 0.630281 0.606776 0.629761 0.583607 0.538799 0.580641 0.551985 0.551327 0.546064 0.573474 0.580557 0.569787 0.584542 0.598679 0.616947 0.685102 0.663614 0.635055 0.594555 0.577341 0.531244 0.539294 0.533226 0.542882 0.569030 0.623633 0.653807 0.673630 0.696247 0.674711 0.729924 0.743582 0.743775 0.771482 0.806750 0.898292 0.943764 1.073050 1.123568 1.064254 1.137583 1.188929 1.185866 1.199685 1.140310 1.225457 1.256352 1.167287 1.192185 1.303456 1.211960 1.290984 1.237055 1.271517 1.325543 1.287883 1.342955 1.329671 1.458342 1.461695 1.500324 1.414501 1.458649 1.422099 1.521380 1.429823 1.557553 1.497252 1.542150 1.481946 1.481389 1.568380 1.495695 1.524326 1.553277 1.609156 1.648057 1.583469 1.546630 1.609299 1.650581 1.584003 1.633400 1.721211 1.654451 1.680463 1.754837 1.768318 1.795673 1.788413 1.811444 1.821398 1.817666 1.744178 1.785400 1.795114 1.765558 1.815794 1.840106 1.844271 1.883746 1.821899 1.992629 1.976551 1.872151 1.954190 1.792462 1.899634 1.957985 1.921850 1.984742 1.956835 2.063782 1.985139 1.988244 2.065355 2.091939 2.137570 2.209837 2.062311 2.195963 2.219881 2.201622 2.330404 2.229318 2.373044 2.340389 2.331552 2.424071 2.249806 2.412082 2.393239 2.216484 2.363407 2.372298 2.340256 2.425981 2.290280 2.467112 2.381871 2.437041 2.541542 2.607525 2.523570 2.580675 2.508676 2.627725 2.641089 2.561999 2.558503 2.693469 2.610975 2.570684 2.665349 2.532738 2.539759 2.708422 2.692087 2.601923 2.653280 2.811099 2.658893 2.653446 2.769870 2.808516 2.775198 2.720124 2.773806 2.646878 2.696958 2.786735 2.681782 2.846264 2.900341 2.761619 2.909547 2.895900 2.994954 2.940988 2.899828 2.910785 2.937811 2.842938 2.935262 2.863768 2.861634 2.964259 2.895701 3.033780 2.978305 3.125077 2.972688 3.127971 3.114546 3.131967 2.995741 3.119158 2.914216 3.015957 3.174138 3.240366 3.079794 3.126067 3.261186 3.190271 3.397931 3.344111 3.545142 3.622514 3.526291 3.303490 3.192487 3.425162 3.143906 3.413958 3.478239 3.315764 3.344639 3.102126 3.130146 3.137369 3.094424 3.133551 3.262252 3.289588 3.502474 3.231164 3.575571 3.296444 3.203331 3.480910 3.430526 3.287821 3.248817 3.354229 3.573827 3.583307 3.459846 3.624315 3.499565 3.394704 3.647863 3.493997 3.489150 3.493600 3.476411 3.690300 3.442898 3.571346 3.508173 3.502610 3.587423 3.736030 3.774777 3.454248 3.620097 3.708898 3.612509 3.567518 3.618695 3.445757 3.597832 3.392862 3.601441 3.445948 3.463527 3.365615 3.314716 3.313888 3.267004 3.421320 3.581348 3.545405 3.325110 3.222632 3.390887 3.384568 3.409841 3.376070
1.412333 1.414331 1.401555 1.339879 1.350498 1.297724 1.142900 1.148425 1.117766 1.110969 1.006342 1.048303 1.050872 1.023768 0.996885 0.904913 0.900447 0.924762 0.821979 0.841938 0.808053 0.762388 0.745012 0.715610 0.722212 0.724596 0.703835 0.724872 0.652904 0.603999 0.573933 0.603065 0.595019 0.565333 0.544050 0.545080 0.589356 0.583815 0.580038 0.598283 0.609769 0.565083 0.602795 0.612712 0.576978 0.633573 0.592147 0.600862 0.621343 0.613745 0.583482 0.605256 0.581874 0.581843 0.595893 0.585398 0.576859 0.549720 0.494827 0.533217 0.507304 0.502612 0.530453 0.518219 0.553841 0.577107 0.553770 0.556669 0.593774 0.551453 0.508511 0.516870 0.525471 0.505474 0.538313 0.572477 0.594857 0.633747 0.651019 0.671305 0.684654 0.684376 0.668917 0.732584 0.721569 0.741612 0.756183 0.837606 0.957544 1.038872 1.132867 1.075272 1.077920 1.190495 1.119810 1.193920 1.196049 1.234579 1.141774 1.238233 1.179473 1.174066 1.254146 1.245708 1.298851 1.258561 1.269458 1.338280 1.328272 1.386038 1.374732 1.401867 1.465933 1.446116 1.461201 1.536830 1.499851 1.482965 1.540904 1.459808 1.553289 1.591459 1.550731 1.615821 1.538546 1.562236 1.552374 1.521353 1.601482 1.684628 1.574327 1.624915 1.586176 1.626954 1.605137 1.603841 1.652321 1.746211 1.748222 1.731961 1.723658 1.810151 1.757120 1.725777 1.771591 1.690542 1.689157 1.716493 1.705544 1.859431 1.738629 1.802338 1.840857 1.941971 1.979156 1.899720 1.935569 1.822265 1.886699 1.817217 1.931514 1.895286 1.868030 1.851027 2.041465 2.046586 1.975963 2.021114 2.007512 1.982079 2.008652 2.219670 2.237947 2.260507 2.248628 2.154444 2.274019 2.357808 2.272268 2.231634 2.327545 2.248382 2.265880 2.417413 2.324339 2.198209 2.292684 2.213742 2.383595 2.418170 2.300504 2.477984 2.479093 2.582032 2.498249 2.437939 2.648454 2.507720 2.711546 2.507480 2.496569 2.567893 2.440173 2.515385 2.464727 2.624059 2.444110 2.470404 2.655865 2.544170 2.474571 2.566959 2.565673 2.694260 2.737064 2.607049 2.689747 2.597952 2.615848 2.555341 2.742485 2.587694 2.794247 2.813873 2.783387 2.648972 2.621379 2.707138 2.881114 2.771915 2.756868 2.759713 2.781399 2.818013 2.915344 3.023197 2.919767 2.871426 2.846655 2.996871 2.997306 3.037350 3.084272 2.864159 2.883092 2.973606 2.876714 3.018069 2.932528 2.875863 3.116961 3.116328 3.112551 3.050102 3.120941 3.238669 3.429123 3.172744 3.320049 3.410501 3.404837 3.479648 3.282221 3.105808 3.319164 3.353232 3.158035 3.383855 3.365615 3.268350 2.881824 2.829367 2.929206 2.923431 3.090424 3.255375 3.220959 3.483606 3.412110 3.217852 3.197339 3.391326 3.432506 3.151822 3.152596 3.382372 3.454449 3.261560 3.249528 3.404452 3.430441 3.266351 3.366317 3.312089 3.439754 3.363961 3.662304 3.524159 3.442793 3.673883 3.638250 3.606142 3.633545 3.675644 3.546460 3.573615 3.455945 3.580224 3.406644 3.510046 3.337893 3.646028 3.639018 3.639679 3.301656 3.310129 3.406944 3.495108 3.550561 3.328215 3.503697 3.414277 3.208013 3.395039 3.438836 3.212422 3.356950 3.178943 3.261943 3.433350 3.162874
1.545761 1.532886 1.441170 1.403773 1.378549 1.254418 1.196526 1.227500 1.152444 1.061238 1.044285 1.046693 0.988672 0.985758 0.922992 0.895812 0.881369 0.852185 0.849391 0.779149 0.831392 0.800085 0.718016 0.743606 0.692476 0.709392 0.673199 0.648018 0.646314 0.603886 0.606088 0.583450 0.537276 0.544382 0.586331 0.552441 0.544123 0.543653 0.544479 0.574962 0.604581 0.582132 0.563681 0.580156 0.593292 0.598144 0.580232 0.575083 0.570687 0.589849 0.596393 0.616848 0.584348 0.585462 0.555871 0.538280 0.547863 0.495119 0.460124 0.449240 0.487727 0.488518 0.492420 0.458876 0.486177 0.463777 0.491217 0.482113 0.521096 0.484693 0.497513 0.490959 0.484855 0.503701 0.519177 0.572259 0.626489 0.614118 0.643309 0.632630 0.646026 0.651512 0.715502 0.676985 0.719784 0.762708 0.843946 0.904113 0.986894 1.075623 1.056065 1.051634 1.157171 1.165528 1.191245 1.129907 1.159968 1.133384 1.216223 1.230139 1.246329 1.191185 1.257432 1.239992 1.242280 1.296101 1.216125 1.248048 1.309307 1.294358 1.366157 1.350563 1.377155 1.392105 1.507443 1.513907 1.433850 1.433175 1.484625 1.590908 1.502787 1.486380 1.569185 1.571292 1.522328 1.584408 1.550437 1.570850 1.622990 1.583048 1.549649 1.642528 1.565348 1.588332 1.731873 1.622151 1.615542 1.740921 1.706604 1.683451 1.822093 1.783850 1.704100 1.773693 1.845465 1.734767 1.803666 1.735939 1.787561 1.730422 1.876050 1.864594 1.853830 1.851117 1.853485 1.812677 1.980336 1.892008 1.837501 1.819218 1.893538 1.755062 1.865692 1.838183 1.936529 1.960691 2.013087 1.978344 1.923906 2.112926 2.117797 2.141686 2.059315 2.181357 2.169384 2.181137 2.155124 2.360581 2.392769 2.294637 2.265641 2.344123 2.308437 2.403550 2.352125 2.229804 2.268234 2.189296 2.205428 2.354746 2.279779 2.322626 2.470274 2.358748 2.471641 2.470058 2.542163 2.485544 2.605816 2.603667 2.657916 2.420744 2.647628 2.389695 2.530650 2.553988 2.554682 2.530508 2.637630 2.435529 2.547203 2.471459 2.719509 2.513135 2.477253 2.636406 2.573702 2.657160 2.543040 2.525533 2.747291 2.754688 2.571673 2.685478 2.665359 2.767488 2.821339 2.863678 2.736460 2.758907 2.998063 2.828283 2.917361 2.858001 2.841387 3.008013 2.791366 2.794246 2.920347 2.930713 2.965005 3.016335 3.050263 2.909190 2.861602 2.850647 2.847164 2.841333 3.021834 3.089106 2.952875 2.953289 2.967351 2.989742 3.121784 3.249498 3.191229 3.193327 3.128612 3.182459 3.275092 3.248221 3.110554 3.330394 3.150075 3.194034 3.111135 3.246334 3.175586 3.207437 2.980803 2.936468 3.093564 2.942353 3.043224 3.233581 3.274527 3.236900 3.416548 3.474525 3.464548 3.203895 3.347806 3.394871 3.118001 3.196990 3.208585 3.197061 3.413427 3.240114 3.376498 3.239265 3.309673 3.320968 3.415977 3.506030 3.278351 3.535341 3.367438 3.288325 3.396332 3.421174 3.345309 3.426949 3.480618 3.373187 3.448999 3.503796 3.638697 3.383609 3.374188 3.489232 3.437372 3.456214 3.447495 3.378519 3.370401 3.378284 3.350131 3.325998 3.284306 3.367170 3.234034 3.234734 3.278113 3.183777 3.117018 3.348392 3.359734 3.211695 3.080840
1.534560 1.480532 1.530881 1.510039 1.454036 1.365510 1.275943 1.250513 1.241714 1.124400 1.129593 1.062991 1.000858 0.991251 0.941954 0.933403 0.908201 0.869634 0.878810 0.832403 0.811706 0.731167 0.738580 0.717630 0.699085 0.735867 0.683316 0.681865 0.658517 0.599588 0.597291 0.580495 0.537484 0.546291 0.562137 0.549587 0.573367 0.570533 0.560213 0.575649 0.567038 0.602246 0.559606 0.569659 0.569083 0.565638 0.611636 0.608238 0.581528 0.599305 0.584742 0.552786 0.579385 0.554800 0.538846 0.517472 0.508947 0.454398 0.446397 0.456551 0.450529 0.429602 0.452133 0.433303 0.428386 0.439886 0.450920 0.460313 0.485796 0.467642 0.515083 0.507467 0.545587 0.526266 0.567726 0.601503 0.579484 0.652653 0.661903 0.672658 0.690126 0.693178 0.707115 0.665853 0.748484 0.785126 0.809349 0.906619 1.026592 1.042586 1.026044 1.133589 1.172743 1.153325 1.103569 1.101564 1.106903 1.173189 1.240668 1.163451 1.219848 1.174372 1.155200 1.167798 1.244594 1.202636 1.248865 1.255918 1.347705 1.281487 1.324717 1.405619 1.413338 1.414813 1.370279 1.510334 1.421969 1.515564 1.517856 1.570161 1.536690 1.508308 1.571103 1.563600 1.494806 1.604290 1.537351 1.510401 1.608153 1.627240 1.590787 1.636919 1.642747 1.627700 1.595026 1.710746 1.668440 1.672146 1.732760 1.636202 1.648070 1.824408 1.728072 1.812346 1.751596 1.807852 1.813610 1.766291 1.794421 1.758545 1.765931 1.887618 1.795633 1.903929 1.949644 1.982505 1.823277 1.945708 1.780074 1.879274 1.832028 1.930564 1.864254 1.860510 1.908306 2.040538 1.935725 1.910944 1.959109 2.035108 2.056102 2.107859 2.158055 2.033343 2.174899 2.244658 2.137960 2.276631 2.219482 2.390763 2.354598 2.420187 2.258092 2.193572 2.295666 2.354327 2.324885 2.199281 2.188387 2.398178 2.463378 2.318629 2.317655 2.327757 2.329631 2.428910 2.559904 2.403792 2.617910 2.613092 2.659905 2.476915 2.534748 2.390560 2.569888 2.398560 2.558138 2.535744 2.426089 2.514138 2.579546 2.409830 2.625278 2.672592 2.691784 2.489361 2.500389 2.637197 2.505688 2.679154 2.645948 2.740612 2.694255 2.563067 2.698236 2.747519 2.743430 2.831537 2.785105 2.918449 2.886350 2.829812 2.954668 2.814703 2.809780 2.754472 2.883969 2.704734 2.821696 2.789051 2.658267 2.904572 2.957094 2.921274 2.991063 2.830743 3.020952 2.820046 3.051889 2.987517 3.065627 2.944801 3.112602 3.128157 3.005335 3.227894 3.028501 3.170526 3.185642 3.149519 3.269948 3.099610 2.988781 3.176901 2.975897 3.132845 3.003142 3.275655 3.130076 3.095386 2.756413 2.934194 3.019557 3.018569 3.015827 3.072292 3.103671 3.242207 3.451540 3.431332 3.180582 3.410292 3.198399 3.343864 3.082046 3.261665 3.071265 3.210534 3.314328 3.202585 3.221249 3.445033 3.398561 3.338003 3.274663 3.292481 3.196574 3.317064 3.514427 3.207881 3.337008 3.349755 3.411108 3.256281 3.415324 3.404334 3.414187 3.351656 3.379110 3.402891 3.308621 3.463824 3.282995 3.424317 3.357315 3.281312 3.086947 3.379951 3.323042 3.219752 3.262889 3.145668 3.143477 3.160608 3.240516 3.061026 3.195219 3.114565 3.200481 3.255812 3.213360
1.571022 1.599546 1.577552 1.535018 1.404197 1.392948 1.371774 1.326489 1.285053 1.158250 1.156190 1.132300 1.053145 1.019519 0.996357 0.974950 0.956637 0.887296 0.846990 0.803962 0.809485 0.754022 0.754517 0.698678 0.696052 0.691624 0.644268 0.646299 0.606562 0.594110 0.572580 0.565173 0.528378 0.551774 0.531122 0.537826 0.545043 0.542149 0.551955 0.554731 0.558199 0.605296 0.578774 0.583312 0.602269 0.604576 0.553885 0.604932 0.608200 0.584384 0.553588 0.560043 0.518189 0.508383 0.484608 0.487698 0.477907 0.430835 0.439028 0.427887 0.428311 0.414889 0.410992 0.436271 0.428017 0.411276 0.434179 0.474897 0.471933 0.490689 0.508192 0.497933 0.529982 0.568747 0.553004 0.606941 0.634529 0.609664 0.622377 0.690195 0.694665 0.708092 0.669979 0.730771 0.705875 0.755626 0.894174 0.949543 0.982460 1.092835 1.064608 1.114860 1.119119 1.145716 1.167124 1.198292 1.136091 1.165650 1.215565 1.152201 1.196691 1.141608 1.182460 1.265712 1.187403 1.218987 1.266722 1.236463 1.289932 1.255921 1.290304 1.304453 1.454355 1.373309 1.385328 1.412485 1.522267 1.535301 1.490570 1.446467 1.593484 1.540170 1.561284 1.484110 1.520759 1.511666 1.526578 1.558661 1.632979 1.601401 1.540735 1.575300 1.609793 1.578738 1.612869 1.681379 1.712268 1.679194 1.733998 1.759237 1.777529 1.790638 1.750821 1.662973 1.699611 1.841471 1.851362 1.741469 1.716211 1.781554 1.886792 1.816492 1.894062 1.962353 1.832913 1.815582 1.814623 1.836164 1.913015 1.852606 1.830463 1.781796 1.963389 1.929317 1.874336 2.024750 1.861018 1.924840 2.048920 1.894099 2.005286 2.070076 2.158914 2.084795 2.168262 2.078338 2.249101 2.262901 2.190295 2.245001 2.316490 2.335119 2.181688 2.378094 2.171044 2.281232 2.264364 2.364671 2.293316 2.309297 2.330245 2.321741 2.440561 2.316339 2.397925 2.417753 2.436412 2.491143 2.570096 2.493712 2.412701 2.412290 2.439592 2.367023 2.480970 2.545739 2.570150 2.419999 2.636992 2.483187 2.629450 2.381307 2.513562 2.594104 2.536322 2.524810 2.653763 2.607322 2.643783 2.469354 2.672562 2.519256 2.667003 2.527044 2.529069 2.624941 2.769330 2.699356 2.658959 2.843096 2.849147 2.793902 2.836806 2.909494 2.907587 2.736234 2.659219 2.619904 2.676158 2.751462 2.805099 2.856254 2.664211 2.708308 2.718840 2.796845 2.718131 2.956708 2.792523 2.956150 2.920782 3.026637 2.987804 3.011010 3.073098 3.137127 3.195499 3.082559 3.062944 3.007865 3.149602 3.141733 3.149292 3.054410 3.083912 3.160793 2.994061 3.102818 2.996409 3.017136 2.824422 2.863731 2.867057 2.922578 3.057113 3.234442 3.163894 3.195739 3.177177 3.143492 3.083106 3.288667 3.082902 3.082437 3.295978 3.212515 3.302528 3.251147 3.214282 3.282179 3.180086 3.360767 3.110643 3.221103 3.300600 3.207103 3.359509 3.428438 3.360373 3.401069 3.342749 3.424307 3.237790 3.360665 3.448046 3.375319 3.326537 3.504265 3.468925 3.438966 3.219937 3.337002 3.344438 3.212545 3.247654 3.313632 3.162863 3.102001 3.056869 3.060092 3.131363 3.012974 3.197557 3.173508 3.032640 2.977192 3.062725 3.021653 3.214911 3.250679 3.130028
1.592066 1.681834 1.532591 1.565024 1.453149 1.380854 1.320941 1.336397 1.334822 1.253580 1.161165 1.057867 1.061300 1.072910 0.987483 0.940724 0.956255 0.908422 0.807350 0.772453 0.734596 0.713167 0.672691 0.669172 0.687011 0.684488 0.653283 0.645338 0.617256 0.589190 0.562199 0.578752 0.553327 0.535571 0.559375 0.554954 0.579074 0.582271 0.539147 0.552853 0.589079 0.601224 0.596131 0.587618 0.600722 0.562974 0.551058 0.563819 0.576269 0.572899 0.558477 0.485912 0.471440 0.462131 0.451630 0.428262 0.416190 0.404723 0.420627 0.417574 0.403603 0.399757 0.423231 0.425860 0.411609 0.406579 0.433407 0.465637 0.465291 0.497965 0.506641 0.545779 0.573752 0.567618 0.569002 0.613539 0.611658 0.619390 0.633528 0.668908 0.679852 0.710594 0.726582 0.698736 0.741617 0.821727 0.946853 0.989590 1.066469 1.087508 1.112842 1.176802 1.168592 1.174782 1.210789 1.133028 1.160071 1.168417 1.159053 1.212737 1.173787 1.245039 1.223401 1.157075 1.237689 1.258773 1.280360 1.315559 1.274634 1.354861 1.381215 1.398448 1.379163 1.467547 1.495624 1.505193 1.411216 1.421513 1.421434 1.486030 1.460721 1.472784 1.599522 1.605093 1.599851 1.510809 1.509671 1.631420 1.520051 1.509400 1.600183 1.642956 1.636399 1.534133 1.621484 1.652096 1.629302 1.605246 1.601114 1.652819 1.625133 1.653738 1.648542 1.804902 1.831795 1.725201 1.763435 1.726978 1.793307 1.833676 1.731559 1.808621 1.895356 1.805809 1.800527 1.822008 1.962316 1.956477 1.781109 1.953648 1.776845 1.898319 1.794640 1.865246 1.895412 1.948767 2.001539 1.911527 1.964125 1.956324 1.960256 2.025872 1.992295 1.991958 2.155733 2.141912 2.168273 2.243739 2.145175 2.166757 2.193980 2.331582 2.286527 2.233896 2.183704 2.234277 2.375373 2.327484 2.240981 2.213903 2.249459 2.315863 2.271717 2.378487 2.346800 2.437092 2.310833 2.377324 2.506140 2.447338 2.404017 2.412912 2.561405 2.359379 2.478492 2.534099 2.486402 2.449499 2.627548 2.621452 2.539792 2.373030 2.505333 2.531002 2.548875 2.441747 2.515520 2.437978 2.470193 2.429765 2.509313 2.473370 2.445113 2.701913 2.566780 2.612485 2.524314 2.767020 2.825671 2.808808 2.689535 2.698475 2.716111 2.745908 2.855940 2.614906 2.660135 2.672855 2.675751 2.752669 2.652663 2.604328 2.753295 2.833236 2.649179 2.837554 2.684027 2.861395 2.828454 2.895610 2.943816 3.014186 3.006928 2.932937 3.103169 2.977882 3.018530 3.077108 3.063346 3.051914 2.919752 2.970592 3.142473 3.061670 3.027621 2.896370 3.020433 3.054485 2.877710 2.815759 2.764890 2.933258 2.756674 2.935219 3.065008 3.017633 3.069696 3.122762 3.081959 3.263450 3.231302 3.113160 3.157428 3.098402 3.286935 3.139767 3.224634 3.157822 2.983146 3.018421 3.195934 3.266278 3.152698 3.048059 3.306245 3.119349 3.270583 3.179667 3.123577 3.373347 3.372810 3.124185 3.258781 3.430058 3.385213 3.428627 3.286479 3.413312 3.290517 3.316249 3.305353 3.030748 3.104436 3.213544 3.184251 3.155369 3.108338 3.256971 3.238716 3.144278 3.189110 3.083103 3.142646 2.946831 3.024564 3.067246 3.170265 3.002715 2.950408 3.096458 3.124269
1.746116 1.625575 1.640402 1.599337 1.543273 1.504194 1.419176 1.332282 1.279360 1.241427 1.184587 1.172394 1.114348 0.982940 0.984819 0.969152 0.883035 0.859765 0.804737 0.757338 0.759493 0.698815 0.696462 0.648168 0.641237 0.648924 0.636953 0.598144 0.574436 0.565543 0.583096 0.565364 0.554096 0.563826 0.543702 0.526586 0.562049 0.557776 0.584074 0.569527 0.585607 0.598563 0.574483 0.563973 0.572956 0.556542 0.592608 0.590583 0.561075 0.527602 0.496202 0.432078 0.432523 0.411466 0.413676 0.407286 0.430832 0.422449 0.386494 0.400511 0.402298 0.394720 0.400918 0.403780 0.411155 0.438875 0.427154 0.451016 0.483877 0.515643 0.529533 0.557488 0.576204 0.572979 0.600765 0.639501 0.650355 0.651353 0.710192 0.698298 0.687348 0.680379 0.689909 0.730525 0.763889 0.844039 0.906927 1.039009 1.008725 1.037817 1.159257 1.189798 1.149353 1.179557 1.196647 1.240775 1.236684 1.189774 1.165882 1.172666 1.181049 1.238614 1.177719 1.188502 1.237074 1.217581 1.290553 1.247471 1.280088 1.310465 1.267140 1.386901 1.332710 1.445503 1.418595 1.471862 1.461270 1.472535 1.424527 1.552452 1.446888 1.564845 1.498955 1.504829 1.609630 1.536201 1.590389 1.528178 1.588617 1.552331 1.571089 1.547201 1.557122 1.572827 1.624756 1.671028 1.556694 1.580464 1.605683 1.690817 1.692236 1.712620 1.638946 1.773774 1.693406 1.748075 1.672208 1.737757 1.764932 1.827752 1.712409 1.815902 1.821429 1.853141 1.796794 1.907511 1.812914 1.865269 1.845837 1.884176 1.844545 1.805678 1.914787 1.927811 1.936485 1.837103 1.919636 1.900223 1.857096 1.856320 2.039855 1.976632 2.037117 1.935901 1.965290 2.006005 2.080436 2.227205 2.157279 2.277261 2.254690 2.283703 2.291828 2.336876 2.223032 2.145337 2.302427 2.271323 2.376052 2.197744 2.381777 2.319309 2.262316 2.348949 2.376494 2.294680 2.429395 2.335093 2.414111 2.363641 2.294232 2.366248 2.446780 2.393705 2.461889 2.324430 2.414878 2.499910 2.484869 2.540488 2.600110 2.534042 2.462374 2.441686 2.377685 2.511552 2.493975 2.464114 2.438717 2.409828 2.580163 2.419878 2.414034 2.546664 2.629965 2.709313 2.766172 2.733041 2.603765 2.680713 2.867810 2.751178 2.801119 2.589751 2.596041 2.701553 2.609168 2.575700 2.602074 2.530795 2.734512 2.548045 2.703739 2.796781 2.741719 2.641397 2.753539 2.727774 2.845402 2.936244 2.909510 2.998545 2.981133 3.072015 2.930799 3.044070 3.143371 3.046914 2.941052 3.022300 3.025559 3.103115 2.835679 2.953409 2.836035 2.900116 3.116309 3.159284 2.962417 2.900132 2.658308 2.735474 2.720111 2.815985 3.128858 2.931251 3.237439 3.058656 3.240177 3.082551 3.202405 3.234599 3.068376 3.264148 3.158281 3.241832 3.185285 3.095392 3.133830 3.152977 3.074732 3.173076 3.081799 3.142977 3.199382 3.013122 3.267907 3.213333 3.185657 3.027332 3.261263 3.091847 3.209944 3.153068 3.244520 3.256957 3.140795 3.163821 3.055529 3.105551 3.048242 3.135899 3.213425 3.123768 3.189198 2.991280 3.009098 3.084220 3.104850 3.031533 3.140392 2.933882 2.931263 3.090421 2.906020 2.941846 3.085867 3.143020 2.967680 2.889218 3.157977
1.790646 1.836023 1.696628 1.685978 1.584542 1.591183 1.469034 1.367942 1.290279 1.324230 1.245607 1.176870 1.092812 1.005007 0.982298 0.916266 0.867777 0.885128 0.835013 0.738981 0.710328 0.669676 0.666093 0.621195 0.618301 0.630514 0.609943 0.551266 0.560479 0.524531 0.550348 0.523580 0.570756 0.547977 0.534480 0.558761 0.532174 0.537046 0.593458 0.545355 0.560059 0.559591 0.553585 0.568650 0.563074 0.572234 0.583965 0.582722 0.522850 0.492128 0.459054 0.412596 0.402397 0.414200 0.410603 0.430583 0.393923 0.399910 0.397622 0.385288 0.418077 0.390931 0.419608 0.424862 0.394085 0.423073 0.428716 0.439553 0.511183 0.499601 0.547209 0.530618 0.557448 0.580234 0.593133 0.658064 0.677535 0.651089 0.668176 0.711274 0.696976 0.681020 0.727967 0.813180 0.822851 0.909509 0.982801 1.005850 1.016159 1.051792 1.081196 1.192025 1.226792 1.149067 1.161902 1.207208 1.191800 1.142318 1.269725 1.243039 1.210541 1.197746 1.193290 1.229874 1.163593 1.228678 1.237718 1.226893 1.221717 1.344905 1.288570 1.360878 1.411886 1.398433 1.404597 1.492736 1.481320 1.536922 1.467102 1.486964 1.540804 1.574334 1.519194 1.519341 1.558406 1.473510 1.601095 1.573219 1.488923 1.516229 1.531881 1.634616 1.649125 1.666847 1.587341 1.644150 1.623113 1.629606 1.568720 1.613387 1.628373 1.717419 1.601464 1.625530 1.641240 1.797473 1.709732 1.708804 1.771314 1.813011 1.793282 1.732956 1.770151 1.810832 1.851259 1.896758 1.886150 1.940019 1.801288 1.782073 1.917591 1.917307 1.775705 1.852160 1.773138 1.812204 1.960289 1.908173 1.907897 1.951953 1.874410 2.044643 1.896365 1.999406 2.051279 2.115809 2.005831 2.071694 2.141202 2.160491 2.085518 2.264213 2.233538 2.218824 2.161340 2.275826 2.220507 2.324365 2.203274 2.256270 2.283101 2.270696 2.248052 2.331739 2.197318 2.350354 2.287277 2.345104 2.389993 2.239707 2.299150 2.375121 2.334805 2.444924 2.499890 2.370134 2.468802 2.370397 2.389666 2.620414 2.497228 2.561127 2.339593 2.411200 2.451587 2.549564 2.515436 2.600450 2.418685 2.521458 2.512102 2.562050 2.504755 2.517441 2.532933 2.503102 2.588819 2.666799 2.753524 2.569560 2.614703 2.570326 2.541117 2.712266 2.652311 2.620103 2.691497 2.586140 2.644700 2.567704 2.664313 2.559333 2.677147 2.687268 2.629804 2.690547 2.791861 2.698153 2.701080 2.914018 2.816237 2.996180 2.892681 3.010762 3.079951 2.925932 2.892060 2.913751 2.907934 2.878038 3.035196 2.785780 2.832066 2.913162 2.829047 2.854732 2.912188 3.107970 2.796090 2.798096 2.711503 2.831399 2.721483 2.976631 2.965349 2.953989 2.929585 2.926303 2.905395 3.195361 3.151613 2.922075 3.088446 3.176460 3.081313 3.095748 2.881562 3.040870 3.170781 2.977670 3.142221 2.918784 2.966232 2.956586 3.058518 3.149121 3.071625 3.106809 3.107075 3.190890 3.262041 3.089012 3.182310 3.291411 3.238402 2.979064 3.041035 3.118196 3.173320 2.965892 2.940232 3.179641 3.014457 3.168542 3.059552 3.050606 3.081960 3.051386 3.074732 3.090879 2.993144 2.902171 2.816479 2.804909 3.024622 2.918606 2.867010 2.985921 2.990797 2.893451 3.072279
1.880241 1.887357 1.809628 1.627370 1.607392 1.582865 1.436320 1.410604 1.399881 1.320183 1.251227 1.136162 1.051174 1.018309 1.014876 0.925649 0.923792 0.862471 0.772073 0.744107 0.680099 0.656074 0.667719 0.627502 0.609695 0.586100 0.589040 0.551404 0.525513 0.519315 0.516120 0.526143 0.544564 0.517409 0.563114 0.557731 0.533349 0.540753 0.534069 0.562450 0.582514 0.560162 0.539300 0.550918 0.540554 0.560369 0.550894 0.562026 0.533492 0.491128 0.434038 0.402417 0.426351 0.392534 0.393380 0.397559 0.408365 0.391095 0.395914 0.407033 0.408683 0.410171 0.384817 0.423191 0.408617 0.429186 0.446610 0.476467 0.509124 0.494276 0.550077 0.570717 0.569642 0.551844 0.580672 0.640232 0.654294 0.685932 0.675683 0.720202 0.737281 0.747018 0.765955 0.845061 0.884545 0.961757 1.063793 1.017883 1.074197 1.060457 1.187148 1.149896 1.243213 1.168430 1.189545 1.167333 1.181608 1.217297 1.184281 1.188408 1.276487 1.268850 1.215486 1.283909 1.185231 1.235482 1.232655 1.180460 1.305688 1.363976 1.377771 1.350567 1.451016 1.406527 1.443568 1.439074 1.422986 1.515841 1.525421 1.457127 1.456417 1.576260 1.564181 1.472509 1.483941 1.475199 1.596097 1.584672 1.602045 1.600490 1.595454 1.579196 1.539399 1.607225 1.640741 1.647112 1.581538 1.581511 1.663895 1.549678 1.633713 1.644705 1.721600 1.717020 1.634903 1.799092 1.810281 1.759676 1.751954 1.810126 1.779217 1.789295 1.853246 1.724095 1.832977 1.742330 1.912380 1.909666 1.846434 1.787111 1.830346 1.933111 1.879565 1.773154 1.916775 1.894549 1.790611 1.942133 1.905690 1.852550 1.894336 1.949677 1.979148 1.909770 1.983415 1.944085 2.036083 2.089778 2.118731 2.236514 2.124911 2.107094 2.137010 2.277686 2.271971 2.123145 2.242309 2.115616 2.282965 2.131033 2.166270 2.335355 2.204877 2.344740 2.309232 2.186444 2.352671 2.395437 2.403941 2.326765 2.298707 2.212692 2.239854 2.322309 2.428423 2.405958 2.374767 2.417007 2.490021 2.429409 2.357753 2.509088 2.332610 2.568281 2.458928 2.495151 2.489643 2.568259 2.551396 2.392985 2.460348 2.410991 2.477185 2.580383 2.432100 2.475592 2.684541 2.595518 2.694829 2.680505 2.669465 2.664894 2.607695 2.713514 2.581169 2.602116 2.484729 2.696834 2.541244 2.601269 2.532447 2.486331 2.672077 2.635995 2.692252 2.746703 2.609327 2.768964 2.860884 2.721744 2.860658 3.041208 2.832473 2.980318 3.028942 2.866998 3.044888 2.944787 3.143591 2.951381 2.957069 2.833337 2.871378 2.762761 2.970555 2.982971 3.050700 3.032562 2.642948 2.539547 2.718142 2.670676 2.658937 2.755433 2.841941 3.064489 2.876891 3.074243 3.050415 2.837444 2.898250 3.012583 2.879583 2.916682 3.111886 2.924080 2.960916 2.978326 2.925755 2.913437 3.068802 2.849207 2.867840 3.071171 2.997161 2.952581 2.918881 2.913905 3.045697 2.968099 2.980037 3.277892 3.267518 3.068301 2.973104 2.941120 2.972565 3.098568 3.173929 2.887678 3.151550 2.889009 2.950977 3.157459 3.004131 3.085221 3.107849 3.119715 3.158559 2.873616 2.875398 2.971595 2.981577 2.809064 3.008560 2.796632 2.796945 3.015832 2.883188 2.833762 2.818460
1.947665 1.898007 1.832683 1.694573 1.628346 1.582783 1.477354 1.425742 1.305938 1.335706 1.285433 1.167840 1.114187 0.995429 0.965962 0.904224 0.878770 0.797125 0.787356 0.711884 0.685884 0.686124 0.646828 0.616118 0.634185 0.613429 0.577006 0.567930 0.529911 0.536371 0.527263 0.526888 0.514360 0.549093 0.543328 0.518495 0.541241 0.503400 0.558363 0.576663 0.555046 0.560531 0.520104 0.519247 0.546880 0.561671 0.570686 0.550304 0.492456 0.463298 0.421557 0.405370 0.418894 0.413758 0.401103 0.404576 0.382107 0.407261 0.384891 0.395820 0.400580 0.382636 0.414395 0.378924 0.392196 0.416218 0.421940 0.433711 0.492385 0.478838 0.497849 0.535288 0.574169 0.604224 0.587412 0.658149 0.691959 0.650027 0.669718 0.728164 0.769764 0.764745 0.846917 0.913983 0.960904 1.050113 1.000003 1.027661 1.135781 1.089144 1.126146 1.148055 1.184032 1.248166 1.178248 1.151308 1.204214 1.200885 1.217144 1.198202 1.252434 1.278284 1.304711 1.203612 1.193516 1.277107 1.251130 1.251378 1.295631 1.289443 1.367171 1.313057 1.385609 1.459751 1.434078 1.386123 1.399426 1.511452 1.428276 1.410068 1.427014 1.547551 1.551826 1.510194 1.509512 1.538844 1.560371 1.565982 1.613326 1.630411 1.607844 1.626260 1.529535 1.565809 1.645911 1.586098 1.551557 1.588147 1.571659 1.660298 1.589855 1.658744 1.697114 1.705532 1.658553 1.627389 1.784219 1.750553 1.723815 1.663442 1.841492 1.710659 1.775346 1.770224 1.869330 1.874587 1.859600 1.750632 1.861468 1.779924 1.845722 1.769805 1.865762 1.927205 1.877704 1.845767 1.784729 1.957656 1.893774 1.971194 1.931065 1.847121 1.976525 1.908724 1.983382 2.086977 2.144846 2.032604 2.135511 2.190279 2.056302 2.155741 2.158323 2.061884 2.267997 2.137991 2.116700 2.278494 2.192956 2.084637 2.184771 2.258557 2.207796 2.121267 2.221138 2.287565 2.178251 2.333342 2.211009 2.200498 2.382859 2.385863 2.358946 2.394291 2.450251 2.439536 2.300601 2.393221 2.434938 2.428243 2.369246 2.434796 2.434197 2.396193 2.536861 2.565371 2.482771 2.522543 2.439660 2.401774 2.470408 2.427010 2.524298 2.564065 2.504829 2.467924 2.703224 2.510830 2.578245 2.509210 2.491909 2.580604 2.609317 2.627246 2.448444 2.593764 2.558408 2.465018 2.599115 2.488612 2.677295 2.624938 2.501294 2.678271 2.595581 2.592494 2.533434 2.696630 2.649155 2.800464 2.713126 2.770253 2.900166 2.970725 2.823624 2.958676 2.982516 3.003155 2.953183 2.904572 2.739460 2.802518 2.925293 2.847547 2.780963 2.847601 2.752115 2.898706 2.552439 2.720469 2.524007 2.794938 2.718630 2.888846 2.929516 3.036261 3.038177 3.007274 2.806393 2.907697 2.878106 2.981301 2.958469 3.056711 2.854182 2.835722 3.065529 3.095757 2.868302 2.796880 2.938165 2.993968 2.989682 2.971562 3.039483 3.112442 2.889347 3.145370 2.948873 3.179556 3.205134 3.160766 2.938249 2.962433 3.045354 2.955762 3.119290 2.989904 2.951144 3.114308 2.996986 3.028056 3.116368 3.107818 3.118741 2.999895 2.941430 3.021724 2.844504 2.956407 2.829997 2.764617 2.940383 2.774024 2.901485 2.847779 2.988090 2.891924 2.878088 3.027726 2.896723
1.949624 1.914575 1.922130 1.812333 1.758212 1.613261 1.535761 1.450804 1.446591 1.347029 1.203938 1.139264 1.057100 1.002592 0.964066 0.965395 0.893850 0.836898 0.810616 0.714559 0.674895 0.672833 0.623530 0.596299 0.615303 0.584054 0.532358 0.504888 0.474287 0.488097 0.477117 0.514789 0.514483 0.523487 0.513430 0.473428 0.472217 0.468702 0.492284 0.525919 0.513986 0.541638 0.542995 0.520593 0.534121 0.542021 0.572272 0.511228 0.487568 0.444444 0.405529 0.417052 0.408431 0.383651 0.398185 0.389202 0.403886 0.385601 0.380552 0.390539 0.392198 0.402659 0.407899 0.378024 0.386684 0.382265 0.432106 0.425412 0.484437 0.463724 0.501858 0.535462 0.556008 0.602635 0.629272 0.670532 0.690113 0.717675 0.718120 0.774588 0.832038 0.839672 0.911570 0.980399 1.023513 1.036891 1.050369 1.066125 1.132104 1.153724 1.181528 1.138196 1.206038 1.175284 1.180312 1.187815 1.200366 1.257352 1.271817 1.242418 1.291170 1.238250 1.307259 1.220498 1.318819 1.266725 1.233792 1.330850 1.247790 1.366853 1.354505 1.324100 1.438297 1.359374 1.375977 1.442531 1.419928 1.493019 1.492097 1.538125 1.489307 1.437818 1.466981 1.454427 1.486347 1.566017 1.586232 1.583882 1.531527 1.511685 1.483734 1.601648 1.636564 1.564497 1.664809 1.625454 1.678168 1.593151 1.566937 1.578786 1.575123 1.600009 1.663243 1.693013 1.773346 1.666936 1.652057 1.652665 1.751030 1.817133 1.714251 1.789362 1.674816 1.703734 1.791534 1.788544 1.710434 1.785002 1.887445 1.750382 1.912811 1.876266 1.890230 1.860495 1.847125 1.830297 1.793646 1.802246 1.882567 1.955504 1.965624 1.833596 1.897120 1.941788 1.926238 2.088730 2.105658 2.177193 2.135001 2.206388 2.181973 2.044237 2.072298 2.115789 2.126391 2.068872 2.102360 2.052088 2.083786 2.109725 2.088708 2.059625 2.105840 2.261674 2.165648 2.209520 2.275663 2.287292 2.255732 2.141327 2.297030 2.170519 2.258034 2.179265 2.268855 2.408217 2.406744 2.393168 2.245115 2.428871 2.468143 2.473107 2.478957 2.269111 2.496533 2.393418 2.479010 2.483137 2.446544 2.554747 2.405750 2.346989 2.545929 2.606226 2.455429 2.445683 2.620929 2.605538 2.664626 2.618377 2.496498 2.597167 2.502952 2.378425 2.496973 2.557944 2.435163 2.509162 2.482646 2.661268 2.556265 2.493051 2.628557 2.508763 2.589919 2.579271 2.716520 2.700275 2.568799 2.672044 2.892990 2.723983 2.848979 2.764418 2.932177 2.748651 2.758976 2.963523 2.739291 2.702261 2.786928 2.619133 2.697486 2.818158 2.805890 2.863448 2.783178 2.687535 2.681171 2.561579 2.654606 2.778980 2.747022 2.762235 2.703915 2.929107 3.000321 3.023955 2.760915 2.926382 2.820953 3.054152 3.003177 3.024667 2.915985 2.999933 2.946116 2.900395 2.965772 2.754981 2.875936 2.951913 2.882591 2.942549 2.783057 2.929052 2.834057 3.047298 3.058520 3.021974 3.008327 3.104220 3.088683 2.994528 3.056186 3.070702 2.983818 3.062591 3.106853 2.997323 3.098845 3.032389 2.996173 3.098326 3.116654 2.931221 3.143784 2.896230 3.076022 2.869142 2.894778 2.780030 2.912300 2.984531 2.818527 2.942495 2.762176 2.838170 2.843389 2.873061 2.879195
2.034876 1.959103 1.832884 1.716137 1.797039 1.647368 1.634005 1.507515 1.369148 1.359711 1.308068 1.140024 1.059145 1.056273 0.998940 0.904697 0.871472 0.821129 0.750382 0.764986 0.722504 0.621217 0.602648 0.602186 0.541116 0.569329 0.556380 0.505731 0.467940 0.496971 0.451349 0.479668 0.481355 0.473689 0.457997 0.464459 0.433806 0.433556 0.462567 0.467517 0.486013 0.488170 0.494435 0.519419 0.546498 0.545668 0.521628 0.492325 0.438148 0.420226 0.409674 0.389262 0.409543 0.402581 0.404376 0.388153 0.398039 0.382061 0.391058 0.390395 0.392212 0.367932 0.393109 0.380816 0.378943 0.382413 0.414550 0.438022 0.445586 0.481593 0.496807 0.520646 0.528311 0.582546 0.604291 0.665733 0.717102 0.761061 0.799320 0.891680 0.871253 0.980527 0.929562 0.994691 1.033697 1.009678 1.046547 1.139097 1.150642 1.089207 1.176069 1.216588 1.157458 1.215937 1.161269 1.166983 1.252128 1.168698 1.214563 1.200158 1.298950 1.219197 1.240998 1.223439 1.268694 1.320030 1.252828 1.309465 1.288984 1.336580 1.356809 1.361452 1.413279 1.373295 1.390013 1.396418 1.415023 1.388616 1.421814 1.422514 1.564680 1.516822 1.482895 1.523635 1.501564 1.492685 1.574744 1.555102 1.521599 1.585713 1.604014 1.571749 1.552462 1.629911 1.543764 1.595879 1.644658 1.623775 1.542730 1.624112 1.557460 1.573190 1.575535 1.689281 1.661722 1.710003 1.806102 1.684311 1.780589 1.716677 1.656388 1.726542 1.646371 1.812774 1.771751 1.766539 1.837585 1.760637 1.890432 1.848169 1.751757 1.864278 1.938420 1.815466 1.810249 1.930067 1.829903 1.801979 1.907622 1.874354 1.856885 1.888417 1.858899 1.996604 1.963224 2.042921 2.012805 2.141479 2.071002 2.147441 2.086520 2.170258 2.116461 2.118916 2.116082 2.118065 2.124869 2.044484 2.219542 2.144498 2.088434 2.216337 2.107456 2.040420 2.231433 2.090374 2.124874 2.093457 2.172160 2.090514 2.134992 2.279516 2.210878 2.265283 2.261946 2.385309 2.404627 2.261542 2.395686 2.343394 2.371592 2.380895 2.413180 2.334406 2.471808 2.334357 2.364636 2.415221 2.322011 2.335412 2.501286 2.492001 2.580543 2.385542 2.656251 2.441362 2.667865 2.442603 2.612826 2.441076 2.561662 2.448850 2.446690 2.352249 2.528074 2.441372 2.563619 2.596945 2.588766 2.607958 2.516348 2.491098 2.447658 2.552276 2.620639 2.610494 2.609502 2.681502 2.768492 2.633156 2.652737 2.730786 2.890567 2.791663 2.796207 2.849445 2.682385 2.675786 2.832517 2.702459 2.637138 2.707101 2.626669 2.671373 2.738680 2.740876 2.694355 2.723545 2.618885 2.502716 2.661611 2.715206 2.665830 2.796436 2.741871 2.922314 2.778997 2.740210 2.878561 2.855175 2.946507 2.712889 2.954291 2.805839 2.936049 2.779816 2.740081 2.756848 2.752649 2.861936 2.793715 2.891883 2.768217 2.977886 2.988703 2.756157 2.862816 2.867516 3.023670 3.091745 3.045667 3.059338 2.912849 2.861379 2.865797 3.012562 2.893151 2.957481 2.963453 3.065659 2.866047 3.139535 2.914609 2.904431 3.123608 3.134887 2.886836 2.912418 2.824199 2.835956 2.807894 2.890819 2.775114 2.880453 2.942281 2.713414 2.943632 2.767870 2.833058 2.664190 2.784592
1.993101 1.898281 1.934727 1.913288 1.685052 1.737334 1.617942 1.486206 1.437799 1.279819 1.208055 1.185693 1.133657 1.047413 0.934554 0.941050 0.910121 0.808270 0.754083 0.708740 0.690004 0.667460 0.599053 0.561368 0.536568 0.529960 0.520183 0.480012 0.487654 0.486018 0.443986 0.454750 0.434090 0.447783 0.423886 0.420844 0.425848 0.407878 0.436595 0.404755 0.415709 0.453504 0.483967 0.477235 0.513081 0.505149 0.543399 0.472896 0.431737 0.424205 0.389108 0.379942 0.398837 0.375670 0.386465 0.370328 0.362369 0.365698 0.353462 0.362572 0.377105 0.369888 0.384373 0.376960 0.387097 0.396352 0.412429 0.423911 0.457049 0.458418 0.507377 0.558494 0.583982 0.590388 0.666127 0.718265 0.759132 0.842427 0.859758 0.904107 0.916817 0.963514 1.013576 1.013886 1.033053 1.038801 1.052974 1.114606 1.087576 1.093172 1.151947 1.222710 1.171342 1.190349 1.176712 1.260224 1.221928 1.208941 1.238661 1.172371 1.186770 1.225217 1.308353 1.269995 1.260905 1.280789 1.283017 1.290787 1.344681 1.298844 1.408418 1.319750 1.311958 1.319471 1.447229 1.455651 1.413617 1.419924 1.463598 1.538278 1.552372 1.488996 1.434701 1.456881 1.461240 1.576050 1.481718 1.491705 1.515346 1.555683 1.542319 1.613699 1.645175 1.664250 1.594535 1.679731 1.673689 1.576474 1.554853 1.676645 1.581346 1.610260 1.547601 1.714289 1.668226 1.634745 1.763343 1.672571 1.646857 1.751851 1.784425 1.738499 1.719119 1.720770 1.675923 1.683780 1.845394 1.753465 1.818288 1.783139 1.757585 1.845661 1.809550 1.933705 1.913366 1.911007 1.945219 1.779098 1.836844 1.861763 1.881286 1.910919 1.900969 1.873812 1.965739 1.960559 1.969215 2.110374 2.118669 2.058002 2.102176 2.031726 2.144112 2.027220 2.172699 2.135207 2.092132 2.118824 2.027719 2.099802 2.011680 2.136322 2.122007 2.046811 2.070482 2.050351 2.045397 2.117598 2.083974 2.131401 2.266585 2.245568 2.164396 2.254582 2.327608 2.264948 2.230950 2.197519 2.362973 2.379470 2.232849 2.282597 2.418124 2.294342 2.258355 2.384785 2.469766 2.419093 2.497209 2.456304 2.442323 2.418074 2.487664 2.488945 2.578998 2.584207 2.549990 2.419268 2.593245 2.501987 2.452725 2.499159 2.328449 2.473056 2.417304 2.342687 2.513399 2.464963 2.349872 2.485063 2.442006 2.471120 2.623512 2.693386 2.591705 2.676064 2.633900 2.616360 2.532841 2.558374 2.591101 2.741146 2.579602 2.578213 2.596001 2.708299 2.625617 2.532634 2.577267 2.738221 2.573058 2.559811 2.552438 2.709914 2.577399 2.805804 2.537073 2.598673 2.397402 2.537064 2.559461 2.748209 2.844103 2.830071 2.732679 2.693960 2.889831 2.721614 2.678328 2.867588 2.857040 2.685130 2.937532 2.920781 2.952352 2.752356 2.891285 2.783064 2.755134 2.695241 2.830457 2.670695 2.899175 2.723959 2.684815 2.845827 2.750268 2.978771 2.908690 2.916385 2.914152 2.946576 2.977351 2.856897 2.813614 2.962274 2.771391 2.989712 2.873718 3.064384 3.076645 3.079236 2.920404 3.056022 2.950862 3.054681 3.027620 2.907076 2.863487 2.768832 2.922026 2.963161 2.878715 2.769047 2.936357 2.725100 2.895591 2.819942 2.672815 2.794111 2.716426
2.132282 2.008615 2.015151 1.885106 1.822068 1.640640 1.601688 1.533048 1.386855 1.419689 1.335111 1.181323 1.134139 1.109712 1.036885 0.919218 0.857467 0.828046 0.800148 0.706864 0.673016 0.622642 0.614347 0.559915 0.583686 0.516720 0.517694 0.484558 0.476563 0.461327 0.444423 0.462274 0.422463 0.418213 0.423562 0.412203 0.428161 0.401129 0.395425 0.409649 0.426941 0.403779 0.453338 0.457835 0.487169 0.484928 0.489911 0.469921 0.452163 0.423401 0.405833 0.379160 0.377214 0.405856 0.399563 0.368279 0.355581 0.359104 0.361779 0.374532 0.362821 0.370128 0.392063 0.364319 0.374660 0.387459 0.414596 0.425218 0.431010 0.465071 0.501252 0.541871 0.589736 0.689408 0.713205 0.771231 0.774708 0.828869 0.858062 0.906641 0.961723 1.049812 1.042203 1.017583 1.047119 1.081530 1.040485 1.078004 1.151765 1.134784 1.108269 1.176298 1.129459 1.139451 1.189637 1.209654 1.210830 1.180678 1.197827 1.200504 1.282354 1.290767 1.215348 1.301391 1.214092 1.313225 1.339312 1.328098 1.371064 1.377737 1.355240 1.412686 1.404746 1.422414 1.468016 1.411664 1.383935 1.412273 1.532620 1.435268 1.459246 1.561849 1.524393 1.562179 1.521568 1.545535 1.449619 1.449845 1.527945 1.549574 1.605139 1.540093 1.645926 1.551733 1.545394 1.667178 1.617360 1.542184 1.627940 1.578215 1.548364 1.683956 1.553491 1.710275 1.615171 1.701395 1.778840 1.703632 1.748499 1.715701 1.692541 1.672141 1.764759 1.734128 1.714200 1.741099 1.838492 1.823812 1.829715 1.864356 1.846132 1.880597 1.844379 1.778568 1.874593 1.908284 1.841693 1.778889 1.866477 1.894680 1.929095 1.900637 1.941942 1.921734 2.054301 2.089875 2.116211 2.059023 2.133596 2.142002 2.053137 2.095540 1.992713 2.075463 2.046588 1.986392 2.146863 2.056351 2.167391 2.096580 2.157534 2.107622 2.034121 2.035670 2.038852 2.073398 2.025860 2.165072 2.050165 2.161184 2.247896 2.075153 2.233749 2.304717 2.184637 2.307988 2.268215 2.295125 2.311512 2.264473 2.271094 2.347393 2.388188 2.195694 2.318332 2.257623 2.364668 2.252200 2.369167 2.365159 2.411249 2.400415 2.466931 2.514788 2.513057 2.573542 2.362757 2.399206 2.534054 2.540100 2.459216 2.427118 2.504214 2.285597 2.386208 2.310175 2.500590 2.503130 2.401316 2.445906 2.441332 2.399322 2.461730 2.496597 2.632362 2.569682 2.496684 2.484689 2.645739 2.559569 2.712071 2.721144 2.684658 2.539874 2.554175 2.641632 2.585937 2.637339 2.507945 2.539936 2.660361 2.565128 2.725814 2.709975 2.484567 2.589221 2.528048 2.568277 2.370482 2.509190 2.574210 2.644681 2.784423 2.756232 2.843516 2.732508 2.732629 2.759106 2.706156 2.684219 2.681277 2.675249 2.699922 2.694823 2.759519 2.909179 2.753077 2.701293 2.840219 2.861624 2.702449 2.728960 2.781554 2.761110 2.895201 2.861626 2.929743 2.912293 2.923343 2.937428 2.809181 2.968136 2.987582 2.794658 2.731223 2.754903 2.857151 2.993181 2.909606 2.916660 2.917653 2.969892 3.048471 2.931840 2.870098 3.003350 2.750746 2.949703 2.813045 2.891691 2.940694 2.947155 2.868021 2.781418 2.805891 2.677405 2.690359 2.644936 2.574191 2.605413 2.770399
2.047321 2.031453 1.987619 1.973852 1.874266 1.627028 1.607438 1.536859 1.424485 1.362328 1.331055 1.241283 1.205617 1.093346 1.024742 0.939747 0.874042 0.859124 0.779557 0.738432 0.673353 0.652358 0.594538 0.560214 0.558971 0.559338 0.523918 0.501724 0.496022 0.473851 0.481670 0.471785 0.438520 0.417365 0.415374 0.434960 0.408387 0.401921 0.411936 0.424630 0.419398 0.405396 0.412126 0.428679 0.430710 0.472319 0.483209 0.446235 0.424892 0.396833 0.408919 0.382484 0.372105 0.399131 0.385861 0.372187 0.383873 0.360418 0.371108 0.360352 0.378440 0.361114 0.363748 0.389075 0.368425 0.389177 0.403993 0.430212 0.421032 0.447514 0.529226 0.595976 0.623116 0.693956 0.777494 0.748587 0.808124 0.864089 0.880233 0.883692 0.985219 0.994675 1.064928 1.055283 1.045849 1.035671 1.087736 1.049707 1.090312 1.068733 1.134157 1.171631 1.108946 1.139972 1.134868 1.177531 1.255550 1.180317 1.262228 1.290275 1.290603 1.297549 1.239396 1.199682 1.298887 1.241821 1.298644 1.334237 1.275970 1.324749 1.362014 1.362429 1.312626 1.366912 1.382961 1.406081 1.483729 1.496699 1.441698 1.483491 1.458746 1.457551 1.518890 1.469494 1.532307 1.587953 1.479801 1.459769 1.576028 1.458138 1.547620 1.634037 1.639435 1.606630 1.611119 1.565482 1.635157 1.544899 1.686565 1.538076 1.561359 1.581364 1.672463 1.729210 1.680633 1.695820 1.688593 1.631819 1.650064 1.659747 1.689969 1.629812 1.737035 1.678298 1.799127 1.777854 1.882694 1.866367 1.882809 1.829172 1.728986 1.821908 1.873653 1.911327 1.859342 1.815918 1.871432 1.839177 1.871140 1.819036 1.832364 1.852760 1.912629 1.958708 2.030418 1.905592 1.957147 2.140226 2.098103 2.078779 2.056195 1.997910 2.097489 1.956866 2.033793 2.086776 2.015171 1.967816 2.067372 2.151793 1.993062 2.172457 2.158110 2.073258 2.030075 2.010791 2.141834 2.075767 2.031108 2.050069 2.194033 2.053279 2.221029 2.150457 2.189622 2.121800 2.129073 2.302233 2.238102 2.185094 2.124968 2.303061 2.293046 2.231651 2.168429 2.295799 2.375587 2.272199 2.455288 2.242064 2.270542 2.285655 2.449728 2.331062 2.491771 2.403654 2.449919 2.406788 2.374601 2.275232 2.427187 2.435109 2.430995 2.290273 2.433735 2.393760 2.284558 2.333159 2.421052 2.317616 2.389823 2.458294 2.435593 2.423678 2.541658 2.409233 2.442968 2.622243 2.502483 2.594808 2.566297 2.482175 2.474351 2.622224 2.575999 2.512632 2.368555 2.478019 2.399805 2.532590 2.440863 2.460107 2.576082 2.645979 2.499919 2.387783 2.292164 2.433889 2.523012 2.483298 2.584659 2.796363 2.760719 2.701282 2.719961 2.745198 2.760326 2.522954 2.753573 2.756566 2.719677 2.873431 2.740431 2.634026 2.632151 2.786784 2.747413 2.725031 2.809316 2.790136 2.825140 2.715914 2.673534 2.826415 2.630195 2.724243 2.870508 2.736469 2.908775 2.766143 2.836669 2.914759 2.731840 2.901151 2.938850 2.758639 2.746311 2.767851 2.770948 2.825225 2.721829 2.778562 2.723253 2.731709 2.715069 2.849200 2.867854 2.744807 2.869945 2.677549 2.828420 2.648960 2.889955 2.687362 2.801751 2.836019 2.800026 2.601223 2.534211 2.695431 2.542910
2.174324 2.010611 2.013817 2.019122 1.869979 1.726003 1.620796 1.581608 1.540117 1.453469 1.375293 1.204283 1.153848 1.146010 0.989257 0.962269 0.906377 0.811484 0.809391 0.767952 0.714084 0.658441 0.607727 0.592421 0.566965 0.524845 0.525402 0.533732 0.492451 0.501579 0.487517 0.472781 0.440331 0.438785 0.432802 0.445138 0.423209 0.408613 0.405411 0.402694 0.408583 0.415060 0.410977 0.401830 0.428572 0.482726 0.480694 0.480807 0.405666 0.378411 0.400495 0.389666 0.397811 0.373098 0.372638 0.360910 0.373390 0.349328 0.365441 0.352917 0.347476 0.351735 0.379789 0.395587 0.381031 0.406715 0.427529 0.452858 0.472975 0.484957 0.544287 0.603072 0.650969 0.712828 0.785409 0.819787 0.832136 0.891645 0.872091 0.952543 0.994807 1.031480 1.040525 0.992600 1.026118 1.010589 1.051285 1.045171 1.068683 1.094128 1.127264 1.166735 1.167998 1.160128 1.158689 1.246547 1.264863 1.289957 1.217500 1.295019 1.206402 1.207032 1.236396 1.214588 1.265885 1.221270 1.266987 1.330564 1.310825 1.387811 1.362031 1.337576 1.411268 1.422801 1.444951 1.461305 1.444713 1.410442 1.398608 1.482776 1.502514 1.490190 1.475621 1.536901 1.608896 1.551640 1.466085 1.519503 1.602703 1.500209 1.554522 1.595365 1.497254 1.531324 1.518354 1.630581 1.534674 1.573155 1.627964 1.642902 1.612751 1.660618 1.671593 1.608419 1.576049 1.628457 1.753646 1.664845 1.636786 1.738166 1.694996 1.795604 1.756334 1.798464 1.694438 1.804557 1.789303 1.850949 1.898301 1.898323 1.841321 1.821878 1.801689 1.791394 1.776236 1.819039 1.913328 1.786801 1.885629 1.901018 1.808059 1.963556 1.913909 1.982957 1.977095 1.992412 2.100140 1.975688 2.134473 1.971135 2.056449 2.036511 1.938818 2.120727 2.007843 1.991525 2.097263 2.029135 2.077303 2.095742 2.076663 2.081569 2.080052 2.122761 2.069366 2.082693 2.098727 2.092156 2.057056 2.049465 2.008180 2.158676 2.122446 2.068436 2.270468 2.145281 2.060731 2.151662 2.203077 2.212531 2.131019 2.155070 2.175207 2.190340 2.253931 2.265088 2.269232 2.291763 2.233029 2.431079 2.368513 2.341876 2.282161 2.432361 2.359968 2.360275 2.383098 2.333150 2.375480 2.377921 2.390460 2.343257 2.319183 2.275576 2.370049 2.281517 2.257479 2.218757 2.372104 2.349243 2.478801 2.402318 2.413437 2.442959 2.562600 2.540383 2.399619 2.555152 2.470704 2.524578 2.393455 2.379291 2.523213 2.372131 2.458223 2.430259 2.317539 2.411354 2.389218 2.527444 2.437717 2.505187 2.365970 2.467180 2.455979 2.236608 2.427424 2.374817 2.418021 2.560209 2.484012 2.760459 2.604034 2.582337 2.588756 2.636095 2.565264 2.651801 2.664435 2.725250 2.701369 2.842281 2.842025 2.633513 2.740031 2.620945 2.716465 2.818222 2.721086 2.638494 2.672974 2.800445 2.729846 2.639692 2.592585 2.746103 2.614216 2.629386 2.627110 2.740244 2.863540 2.625804 2.818879 2.870481 2.834896 2.797150 2.655831 2.813672 2.712726 2.836364 2.825913 2.885830 2.673247 2.702292 2.916882 2.908313 2.764264 2.870670 2.697145 2.687285 2.789222 2.623272 2.623927 2.844065 2.898438 2.705795 2.761692 2.559344 2.669669 2.679827 2.489415
2.044402 2.105680 2.058262 2.059769 1.916782 1.809652 1.670616 1.572405 1.444293 1.468031 1.369558 1.263176 1.209742 1.104057 1.035576 0.955633 0.947857 0.853096 0.815752 0.772178 0.677179 0.683098 0.645368 0.581827 0.556858 0.547072 0.525214 0.495150 0.477187 0.472564 0.451634 0.443972 0.451001 0.450324 0.413234 0.438410 0.410900 0.417067 0.403483 0.395629 0.427078 0.404969 0.432328 0.394887 0.424955 0.460634 0.485180 0.450294 0.426203 0.385214 0.396804 0.391112 0.398698 0.375952 0.371431 0.387543 0.361605 0.358862 0.363998 0.350840 0.343942 0.352744 0.392184 0.369764 0.409290 0.431066 0.416950 0.441466 0.496230 0.548899 0.557553 0.647361 0.695834 0.725435 0.754779 0.768983 0.823704 0.830050 0.875419 0.884453 0.959446 1.010154 1.021948 1.030042 1.027354 1.056188 1.058360 1.027564 1.062191 1.115240 1.095176 1.117743 1.194108 1.197117 1.134046 1.221178 1.164592 1.191476 1.305953 1.310785 1.205557 1.229881 1.262799 1.274994 1.276819 1.313536 1.312561 1.330297 1.362754 1.326017 1.340396 1.374819 1.399990 1.418395 1.377409 1.387992 1.454848 1.401098 1.399951 1.424156 1.435594 1.427399 1.510256 1.516328 1.518114 1.489668 1.482921 1.547142 1.551982 1.531006 1.566815 1.601170 1.474170 1.505870 1.547301 1.564218 1.594460 1.617426 1.543841 1.585802 1.593831 1.657778 1.547156 1.695053 1.700928 1.703693 1.691382 1.709068 1.699618 1.679739 1.695771 1.718119 1.652138 1.802189 1.753606 1.753647 1.810110 1.832193 1.820867 1.831813 1.858264 1.884447 1.890062 1.742164 1.746457 1.800900 1.725921 1.789777 1.826550 1.891458 1.934893 1.839418 1.864279 2.010231 1.890937 1.920605 2.071211 1.945489 1.971662 2.104411 1.970158 1.954074 2.020034 2.083660 1.911721 2.038622 2.017845 1.979794 1.928461 1.953023 1.993603 1.963888 1.936598 2.126177 2.021626 1.935795 1.940779 2.151076 2.115701 2.012906 2.066045 2.038737 2.080791 2.092133 2.188737 2.073041 2.143737 2.129310 2.188218 2.206443 2.131755 2.124805 2.208894 2.121719 2.268606 2.248001 2.342947 2.251865 2.361428 2.243030 2.210997 2.343883 2.379491 2.325328 2.343613 2.397097 2.207486 2.241822 2.272415 2.211543 2.352287 2.234560 2.340319 2.383629 2.352759 2.371029 2.224466 2.222879 2.279940 2.247515 2.273841 2.363685 2.338639 2.365488 2.425019 2.428468 2.486628 2.485783 2.399229 2.338224 2.322485 2.366341 2.394599 2.288643 2.382382 2.304720 2.270013 2.300966 2.292690 2.352384 2.371045 2.365688 2.414548 2.352075 2.153635 2.294045 2.379172 2.452853 2.349163 2.431731 2.451000 2.588645 2.711876 2.554699 2.592840 2.661976 2.487285 2.499198 2.637130 2.633764 2.538865 2.737673 2.670084 2.718658 2.697990 2.731389 2.600413 2.735751 2.667622 2.580664 2.708147 2.562201 2.561847 2.769276 2.781116 2.754960 2.772688 2.626223 2.786298 2.649809 2.692320 2.709433 2.832585 2.609662 2.584296 2.621883 2.596075 2.641903 2.750011 2.629245 2.805036 2.849029 2.860786 2.674330 2.682309 2.738330 2.706824 2.653359 2.680992 2.772082 2.677279 2.799931 2.647611 2.802399 2.791596 2.715324 2.779792 2.643472 2.477796 2.552342 2.635367
2.259687 2.239629 2.090769 2.022886 1.970264 1.831659 1.630385 1.669379 1.552929 1.481946 1.346776 1.313535 1.222214 1.197661 1.066027 1.041309 1.000719 0.852357 0.838181 0.767150 0.723568 0.703710 0.653178 0.582246 0.568629 0.533801 0.521810 0.534567 0.526728 0.481073 0.470851 0.473905 0.445999 0.426355 0.423825 0.408052 0.440134 0.429564 0.408073 0.418657 0.393634 0.397894 0.397485 0.413114 0.405604 0.430273 0.425751 0.438955 0.393502 0.386920 0.390656 0.369238 0.379534 0.385198 0.386056 0.347784 0.341653 0.351655 0.365927 0.349824 0.374499 0.363076 0.402956 0.420797 0.410451 0.419600 0.443100 0.479844 0.499893 0.571847 0.603121 0.691470 0.683948 0.774032 0.749234 0.822686 0.852715 0.878965 0.865699 0.896126 0.960289 0.964160 0.994739 1.110207 1.059788 1.095006 1.027109 1.049166 1.073220 1.098041 1.163035 1.112849 1.135172 1.204566 1.142412 1.190075 1.222902 1.185181 1.300724 1.324281 1.246087 1.236354 1.324979 1.263535 1.312339 1.384823 1.288927 1.261659 1.368316 1.375574 1.371813 1.345413 1.306191 1.433314 1.350634 1.445487 1.492171 1.434459 1.503160 1.528916 1.405265 1.541081 1.549305 1.495714 1.583402 1.507540 1.612922 1.477693 1.546110 1.476463 1.570640 1.460854 1.590523 1.500106 1.574023 1.545793 1.579883 1.594578 1.529380 1.565643 1.594297 1.604299 1.577969 1.579180 1.692011 1.559928 1.569431 1.717073 1.714759 1.616161 1.626272 1.705556 1.702239 1.676180 1.692335 1.823925 1.817566 1.813472 1.815643 1.783997 1.788598 1.766599 1.778619 1.847584 1.745624 1.812971 1.849366 1.767429 1.869633 1.853754 1.953067 1.863161 1.867901 1.982206 1.903962 2.009385 2.020915 1.977716 2.094078 2.027764 1.963352 1.897698 1.914302 2.066005 1.938382 1.965438 1.958822 1.971698 2.038624 2.070379 1.944140 2.070007 1.959985 2.034813 2.045059 1.955528 1.963420 2.104283 1.994092 2.069550 2.077833 2.101416 2.160459 2.040212 2.102738 2.076982 2.117925 2.040241 2.110152 2.274210 2.249128 2.229478 2.241157 2.103194 2.159456 2.232088 2.242206 2.244234 2.197572 2.361960 2.182846 2.203344 2.195368 2.392368 2.183530 2.237654 2.264030 2.178309 2.312221 2.321160 2.141312 2.199846 2.340031 2.328683 2.328315 2.302502 2.161772 2.133001 2.215549 2.304049 2.276556 2.407464 2.340500 2.220637 2.233992 2.422087 2.383494 2.285802 2.260274 2.423799 2.261627 2.352231 2.322442 2.148101 2.309524 2.325934 2.216954 2.286603 2.295193 2.372527 2.443394 2.379493 2.306579 2.112002 2.279189 2.277609 2.394055 2.470312 2.525954 2.609580 2.461438 2.454566 2.567258 2.621281 2.582803 2.533530 2.609480 2.718399 2.506529 2.635271 2.653453 2.719859 2.538407 2.542101 2.688658 2.523308 2.622175 2.614387 2.654597 2.556367 2.545684 2.492735 2.566533 2.670737 2.621501 2.659808 2.758636 2.615251 2.696366 2.541345 2.681032 2.537634 2.533894 2.673266 2.778793 2.698425 2.594299 2.780940 2.656784 2.626691 2.698594 2.695694 2.606960 2.687903 2.733030 2.643305 2.727093 2.768166 2.635085 2.667481 2.733744 2.742841 2.595073 2.624312 2.690080 2.576257 2.687495 2.462221 2.612500 2.567596 2.540312
2.223943 2.145825 2.228013 1.954178 1.915762 1.895647 1.800825 1.624029 1.598861 1.464102 1.433534 1.384991 1.231950 1.194470 1.165298 1.100458 0.961186 0.885394 0.865472 0.748713 0.726858 0.657748 0.656078 0.576971 0.563610 0.539405 0.555753 0.537920 0.502129 0.505178 0.472922 0.438159 0.425253 0.433202 0.430915 0.434731 0.404701 0.400874 0.415421 0.424964 0.416833 0.406461 0.412170 0.409994 0.413990 0.433955 0.424798 0.398442 0.408157 0.372676 0.371337 0.359883 0.357732 0.374944 0.381931 0.341509 0.339284 0.332546 0.359305 0.342162 0.379578 0.375835 0.409645 0.448544 0.465258 0.452127 0.459229 0.495418 0.533493 0.625139 0.674976 0.701899 0.729095 0.781422 0.769871 0.866915 0.860586 0.870649 0.900966 0.989643 0.968411 1.007578 1.059853 1.081196 1.044733 1.109505 1.051298 1.025356 1.100343 1.134564 1.160531 1.080450 1.114424 1.150825 1.157029 1.143804 1.274487 1.300570 1.298939 1.235983 1.255752 1.285126 1.362783 1.395696 1.301465 1.380098 1.346872 1.281912 1.318419 1.271431 1.374330 1.284595 1.315823 1.409811 1.345363 1.430315 1.446277 1.488291 1.419728 1.501616 1.482682 1.453271 1.507881 1.556008 1.562168 1.579049 1.500128 1.579417 1.527188 1.557871 1.544549 1.445928 1.588298 1.593155 1.568191 1.500426 1.574393 1.592651 1.524727 1.462623 1.592809 1.533066 1.659735 1.524870 1.584744 1.529815 1.553337 1.617354 1.639427 1.677410 1.738125 1.653710 1.683038 1.722601 1.797104 1.688448 1.709341 1.821815 1.766437 1.764132 1.822926 1.731132 1.854946 1.837700 1.830655 1.892051 1.846352 1.881839 1.881838 1.882681 1.928741 1.935182 1.948577 1.977844 1.859309 1.985742 1.998022 1.911153 1.935038 1.886691 2.053207 2.047123 1.904429 1.990521 2.034933 2.035742 1.878562 1.963277 1.920538 1.954461 2.064549 1.895702 2.032348 2.043396 1.925821 2.050797 2.059293 1.971537 2.120874 2.014148 2.071217 2.141029 2.025314 2.088851 2.044184 2.013735 2.004620 2.126588 2.059196 2.105197 2.132539 2.166069 2.209840 2.246178 2.159481 2.197400 2.173211 2.204684 2.108845 2.299420 2.158329 2.169662 2.341847 2.299303 2.346942 2.140837 2.150050 2.232704 2.201249 2.127407 2.285311 2.125714 2.116399 2.192450 2.200986 2.113465 2.117741 2.096276 2.239972 2.124359 2.338750 2.218241 2.294298 2.332548 2.393997 2.237999 2.353404 2.363351 2.358566 2.228947 2.238593 2.105324 2.245916 2.185635 2.192376 2.257827 2.245070 2.140070 2.261768 2.369286 2.257102 2.197189 2.239119 2.088976 2.109492 2.271198 2.274863 2.340835 2.541661 2.384867 2.463583 2.458766 2.574751 2.486406 2.605471 2.492470 2.464442 2.505685 2.537232 2.613379 2.479336 2.681142 2.609708 2.509399 2.499913 2.592735 2.594841 2.625589 2.527432 2.438080 2.525343 2.627424 2.588458 2.620862 2.521001 2.643806 2.644553 2.457044 2.691247 2.655477 2.579373 2.544233 2.478182 2.686232 2.612510 2.589034 2.665136 2.495260 2.571659 2.658439 2.597554 2.525824 2.529277 2.536508 2.706476 2.519326 2.623994 2.756763 2.726485 2.667889 2.577177 2.567473 2.568597 2.519437 2.466187 2.511309 2.625754 2.443921 2.353051 2.504222 2.478166
2.189143 2.275416 2.139678 2.053952 2.076618 1.801904 1.818994 1.659467 1.656328 1.556448 1.417061 1.362569 1.234836 1.189481 1.128335 1.062198 0.945315 0.950495 0.832101 0.756182 0.769002 0.692094 0.674361 0.597739 0.592762 0.545919 0.511916 0.500972 0.512968 0.512772 0.458949 0.438322 0.427102 0.436528 0.413163 0.423216 0.407834 0.415905 0.399819 0.416001 0.396134 0.408490 0.403033 0.389985 0.410404 0.380571 0.390260 0.381830 0.359320 0.355011 0.366915 0.348657 0.367333 0.365403 0.373835 0.351873 0.355052 0.340191 0.346203 0.364189 0.365064 0.397200 0.436770 0.445089 0.467081 0.504725 0.489003 0.532038 0.576042 0.622532 0.663552 0.714453 0.723556 0.771595 0.839886 0.852769 0.870835 0.884516 0.914361 0.911546 0.974333 1.019249 1.079233 1.035144 1.079348 1.129022 1.100554 1.116886 1.056409 1.110004 1.079017 1.102486 1.179257 1.216379 1.235240 1.165920 1.264026 1.265511 1.216530 1.268359 1.327737 1.326882 1.306675 1.382353 1.340323 1.307647 1.358908 1.312285 1.383291 1.280903 1.358443 1.287626 1.283876 1.388669 1.466128 1.451177 1.448674 1.461551 1.520233 1.473055 1.436491 1.511778 1.487453 1.454108 1.489905 1.434953 1.529278 1.537789 1.545542 1.470175 1.433947 1.514343 1.515783 1.463427 1.539482 1.441014 1.431113 1.494856 1.516139 1.566489 1.469492 1.497794 1.599685 1.628433 1.647843 1.568955 1.578918 1.589605 1.693267 1.676921 1.647400 1.623615 1.712635 1.632732 1.784383 1.714308 1.815330 1.802200 1.772105 1.731959 1.740422 1.877644 1.901615 1.798375 1.837855 1.876749 1.813140 1.765084 1.745066 1.912499 1.891953 1.786719 1.894792 1.959785 1.857601 1.856031 1.962660 1.973684 1.881211 1.985369 1.919148 2.014243 2.016989 1.868535 1.926144 1.883536 1.904135 1.962466 1.975711 1.982879 1.973099 1.852554 2.016478 1.941746 1.923997 1.988304 1.881372 1.919661 1.999153 2.117553 1.995661 2.017140 1.999460 2.069869 1.987080 2.028839 2.104904 2.105489 2.067873 2.240198 2.262149 2.108611 2.216301 2.203486 2.063847 2.135505 2.053897 2.137777 2.161813 2.137580 2.274555 2.231219 2.257180 2.144137 2.158287 2.123604 2.123419 2.142042 2.123465 2.067258 2.085808 2.197281 2.168038 2.141396 2.073004 2.170813 2.096291 2.208264 2.184018 2.299239 2.157686 2.222701 2.283276 2.276819 2.191124 2.287125 2.225915 2.106158 2.094938 2.158267 2.128709 2.170642 2.077955 2.097207 2.054876 2.053309 2.062094 2.237899 2.281025 2.178898 2.321251 2.258861 2.094009 2.000852 2.089780 2.076877 2.361844 2.218679 2.428634 2.344766 2.432164 2.405358 2.493868 2.598696 2.503286 2.571488 2.508272 2.618093 2.572233 2.582694 2.476898 2.479296 2.439775 2.468062 2.489892 2.611106 2.417818 2.388068 2.478975 2.491214 2.550691 2.633774 2.642279 2.570707 2.687261 2.481682 2.484178 2.582358 2.427024 2.528279 2.540669 2.588763 2.460589 2.482594 2.586662 2.513564 2.623904 2.532338 2.518150 2.637032 2.638995 2.595621 2.699291 2.606089 2.655118 2.470897 2.604544 2.715273 2.573951 2.591631 2.730554 2.668133 2.610547 2.504615 2.628504 2.480042 2.516177 2.484651 2.372761 2.460320 2.402000
2.253050 2.271649 2.201895 2.221428 2.007883 1.969758 1.894071 1.777644 1.589624 1.607152 1.449291 1.430615 1.368027 1.212299 1.198280 1.065988 0.960952 0.893923 0.860556 0.827072 0.714084 0.706493 0.685708 0.586110 0.566987 0.563581 0.521774 0.550132 0.487493 0.518633 0.481546 0.461268 0.448243 0.411916 0.425773 0.428677 0.407070 0.414524 0.418465 0.414899 0.402308 0.397143 0.396261 0.366626 0.389953 0.364280 0.384663 0.386444 0.373286 0.373620 0.380225 0.365558 0.362741 0.351711 0.346339 0.342453 0.339056 0.354593 0.333965 0.374156 0.416947 0.443557 0.473055 0.495538 0.506212 0.547214 0.534237 0.581597 0.623130 0.641664 0.688301 0.726548 0.748777 0.804975 0.825569 0.834999 0.846944 0.898286 0.904302 0.927056 0.923956 1.024573 1.062119 1.016918 1.091430 1.118425 1.053244 1.110964 1.078014 1.062859 1.091339 1.167275 1.109043 1.230219 1.219850 1.190817 1.227195 1.227748 1.293825 1.265944 1.337221 1.319842 1.274115 1.367022 1.295957 1.319385 1.328494 1.293475 1.267808 1.276027 1.281904 1.324915 1.367327 1.315892 1.443172 1.473547 1.358693 1.383087 1.420400 1.466061 1.466225 1.419080 1.419952 1.450000 1.535284 1.515945 1.448105 1.564642 1.536289 1.465398 1.425613 1.520364 1.495206 1.417422 1.513408 1.497957 1.428862 1.498329 1.503508 1.518659 1.534880 1.486202 1.496276 1.528948 1.629009 1.596783 1.531229 1.613178 1.538752 1.644418 1.648336 1.632639 1.747549 1.617089 1.669533 1.637983 1.678250 1.766718 1.825517 1.831969 1.725824 1.745876 1.764788 1.775761 1.773926 1.749590 1.833398 1.912936 1.771000 1.858055 1.825317 1.966540 1.862219 1.849392 1.940376 1.823247 1.918943 1.960311 1.961856 1.970349 1.849058 1.923453 1.880610 1.876667 1.983527 1.837272 1.862899 1.840711 1.933635 1.893036 1.958076 1.836020 1.888170 2.012843 1.977502 2.021803 1.947392 1.959976 1.939840 2.008903 2.014378 2.077447 1.995569 2.017743 1.990521 2.117814 2.119982 2.087014 2.032309 2.180855 2.076812 2.215336 2.191601 2.094662 2.094316 2.105001 2.128723 2.041117 2.188139 2.191764 2.183641 2.213001 2.090951 2.199067 2.220810 2.223334 2.113187 2.197552 2.068786 2.219207 2.041546 2.119909 2.189781 2.220386 2.167595 2.227713 2.107330 2.216456 2.193085 2.229220 2.170539 2.084818 2.187321 2.249994 2.300667 2.161426 2.196232 2.193155 2.047478 2.208083 2.115217 1.994946 2.028479 2.110837 2.142966 2.108650 2.110086 2.148157 2.262497 2.292116 2.313175 2.098231 2.221790 2.049351 2.045845 2.071898 2.257082 2.230705 2.295245 2.323761 2.327586 2.530437 2.560181 2.560203 2.586010 2.434682 2.567189 2.456312 2.456896 2.517559 2.481030 2.617365 2.487159 2.463016 2.446973 2.474153 2.485223 2.441990 2.414420 2.394855 2.431449 2.586589 2.389552 2.621863 2.538629 2.617686 2.518116 2.590955 2.537967 2.560105 2.597982 2.458027 2.479608 2.557261 2.497730 2.585326 2.470667 2.649777 2.654630 2.581404 2.518734 2.556186 2.620626 2.500412 2.537417 2.614304 2.593624 2.539473 2.469283 2.528006 2.676918 2.480325 2.532986 2.633764 2.400510 2.421954 2.431780 2.465042 2.530292 2.358648 2.355083
2.150359 2.341856 2.281019 2.118241 2.173029 1.942363 1.818821 1.685221 1.674588 1.649325 1.559474 1.446736 1.303404 1.214890 1.136419 1.041514 1.009145 0.972859 0.892113 0.781972 0.784878 0.734762 0.691289 0.637692 0.615686 0.554036 0.562079 0.541295 0.494452 0.500039 0.501998 0.474489 0.439471 0.457661 0.444332 0.410890 0.427709 0.399982 0.425613 0.391784 0.398485 0.379007 0.398551 0.368830 0.372945 0.381104 0.355099 0.382073 0.385317 0.370618 0.386889 0.358079 0.369716 0.344641 0.359396 0.345151 0.333243 0.332994 0.352079 0.401464 0.425960 0.470427 0.468318 0.495119 0.530074 0.561039 0.585415 0.569860 0.632927 0.667319 0.721812 0.723007 0.768253 0.815846 0.837108 0.812119 0.814442 0.857546 0.859127 0.879742 0.972513 0.984882 0.986599 1.049579 1.016557 1.044857 1.073723 1.067548 1.149067 1.140199 1.105797 1.087523 1.108420 1.190022 1.181257 1.202953 1.256039 1.275330 1.255093 1.255008 1.235835 1.260992 1.340804 1.268378 1.377052 1.333199 1.342625 1.357701 1.310415 1.302515 1.360815 1.258948 1.300668 1.339792 1.418813 1.380937 1.395190 1.396482 1.473388 1.396621 1.465925 1.518687 1.541546 1.490847 1.552377 1.436354 1.448461 1.437122 1.534314 1.421135 1.468550 1.423150 1.495464 1.523321 1.415404 1.502189 1.401650 1.464910 1.435324 1.482047 1.536838 1.485321 1.476948 1.592212 1.534842 1.510258 1.527307 1.648764 1.646505 1.526353 1.621515 1.565093 1.606329 1.693214 1.598405 1.621764 1.720603 1.634246 1.774329 1.782309 1.699208 1.712084 1.834785 1.758275 1.878403 1.734413 1.821402 1.801236 1.826268 1.851672 1.905303 1.968536 1.951293 1.858578 1.833272 1.884788 1.857497 1.896965 1.787556 1.973491 1.807526 1.828901 1.909649 1.812977 1.885448 1.885344 1.888527 1.850668 1.836676 1.976938 1.821695 1.992025 1.831437 1.856250 1.829434 1.897002 1.992344 1.901362 1.978960 1.942407 1.984602 1.974587 1.922383 1.880991 1.901910 1.998345 2.022787 2.127656 2.050979 2.050192 2.017077 2.170168 2.126073 2.126955 1.994830 2.126890 1.998893 1.972666 2.106343 2.176034 1.996431 2.052244 2.066136 2.080767 2.135814 2.066665 2.189444 2.208506 2.067853 2.000412 2.012742 2.181316 1.996202 2.107399 2.161141 2.131243 2.031974 2.108281 2.219258 2.028684 2.044234 2.056488 2.165986 2.220592 2.123889 2.170599 2.109140 2.168540 1.970239 2.010309 2.091237 2.077551 2.081359 2.044754 2.058857 2.057193 2.056237 2.047300 2.195975 2.153175 2.168409 2.278159 2.055960 2.058083 1.999043 2.087928 2.189657 2.218949 2.325424 2.290868 2.529998 2.346571 2.459459 2.395951 2.499284 2.392818 2.487607 2.495276 2.473677 2.473259 2.530060 2.481077 2.348086 2.401396 2.330746 2.424598 2.367329 2.370219 2.298872 2.548839 2.342006 2.409789 2.497245 2.446912 2.508203 2.365205 2.584290 2.552700 2.447909 2.472159 2.437355 2.415141 2.382391 2.427470 2.425656 2.633618 2.425483 2.515680 2.584670 2.397651 2.597527 2.532467 2.448738 2.463590 2.634771 2.655158 2.503735 2.652974 2.553506 2.419927 2.500505 2.503696 2.608825 2.491266 2.456242 2.496824 2.351673 2.306127 2.507101 2.314170 2.444375
2.238247 2.165274 2.299770 2.091298 2.176931 2.020129 1.839253 1.829785 1.687039 1.628494 1.457352 1.396869 1.329331 1.279883 1.240322 1.161498 1.078240 0.922374 0.909811 0.798812 0.770976 0.728622 0.670141 0.654027 0.592612 0.568345 0.542199 0.527607 0.496798 0.494684 0.483654 0.489876 0.453392 0.456564 0.437251 0.437184 0.420276 0.403010 0.429379 0.405290 0.386366 0.390403 0.385212 0.380150 0.361491 0.360396 0.380756 0.376374 0.380773 0.387886 0.384030 0.368369 0.365779 0.351257 0.346916 0.330713 0.344829 0.360518 0.378468 0.392870 0.432000 0.469937 0.485674 0.558966 0.548215 0.579426 0.593499 0.587868 0.613658 0.666042 0.705126 0.750125 0.802434 0.819239 0.821409 0.809128 0.819378 0.833855 0.893574 0.887129 0.897451 0.977391 1.035870 1.044084 1.043038 1.045488 1.061793 1.114873 1.066707 1.154961 1.090624 1.153851 1.174215 1.132275 1.137335 1.155322 1.265992 1.187864 1.246881 1.189931 1.207056 1.301404 1.265499 1.299273 1.343313 1.313155 1.384994 1.370639 1.269713 1.312662 1.290731 1.265952 1.341870 1.394536 1.377831 1.383778 1.375130 1.425752 1.350316 1.426300 1.381337 1.493604 1.468474 1.443646 1.435978 1.444280 1.462957 1.473234 1.532650 1.404025 1.434337 1.362529 1.368139 1.485970 1.412564 1.423438 1.500607 1.447597 1.476824 1.451934 1.437415 1.430660 1.519898 1.584952 1.579547 1.594274 1.612861 1.525388 1.550636 1.559633 1.646186 1.622118 1.640153 1.713876 1.652009 1.629671 1.654615 1.695015 1.798412 1.740838 1.732185 1.820975 1.728372 1.750287 1.799563 1.856101 1.880388 1.862500 1.844318 1.856192 1.958946 1.948937 1.964498 1.882167 1.890488 1.892545 1.814663 1.910692 1.787012 1.887267 1.882476 1.901333 1.871202 1.778068 1.786444 1.897932 1.868572 1.937461 1.944970 1.936771 1.930260 1.954513 1.821724 1.839022 1.896990 1.913321 1.941917 1.920291 2.033723 1.973625 1.975698 1.877974 1.954695 1.967675 1.999236 1.929276 2.108325 2.003141 2.020273 2.046595 2.037146 2.125056 1.973939 1.970601 2.081598 2.095386 2.101679 2.065562 1.989007 2.080734 2.040885 1.976844 2.014410 2.114040 2.136025 2.001727 2.122194 2.161300 1.988672 2.071037 1.969845 2.120175 1.978603 2.165516 2.007087 1.994534 1.994518 1.973369 2.019663 2.133394 2.168760 2.071637 2.076777 2.056748 2.053542 2.081788 2.019965 1.946994 1.967905 2.095839 1.982935 2.013025 1.980783 2.136857 1.999622 2.070922 1.989690 1.987168 2.134741 2.087990 2.102702 2.183418 2.198771 2.139535 2.099504 1.936437 2.064753 2.097823 2.275868 2.326394 2.364905 2.362770 2.436981 2.561663 2.562358 2.549502 2.575563 2.577529 2.412899 2.451136 2.515391 2.515529 2.420651 2.475820 2.297321 2.321980 2.394290 2.416932 2.427833 2.383108 2.407684 2.482000 2.524210 2.497302 2.496017 2.407518 2.416892 2.486816 2.526836 2.475323 2.523718 2.353151 2.345454 2.483155 2.485075 2.419420 2.490897 2.420939 2.417576 2.524076 2.591910 2.548161 2.407757 2.426282 2.486111 2.447506 2.397863 2.491565 2.374177 2.532800 2.431127 2.363513 2.476594 2.374699 2.484367 2.416004 2.359414 2.456104 2.367671 2.432828 2.281675
2.201226 2.276380 2.100950 2.125819 2.042908 2.006848 1.968730 1.947087 1.808465 1.655792 1.522104 1.522820 1.331346 1.299187 1.202377 1.161278 1.015688 1.003478 0.878965 0.840542 0.774254 0.721882 0.644302 0.626210 0.585480 0.599362 0.564186 0.518252 0.551098 0.531896 0.495208 0.474449 0.452310 0.458365 0.464753 0.440816 0.414308 0.422495 0.445711 0.403500 0.419635 0.392241 0.381358 0.408597 0.393509 0.388484 0.374435 0.391690 0.391629 0.377984 0.394022 0.375258 0.374745 0.355550 0.356312 0.355833 0.356971 0.359913 0.395264 0.454840 0.456234 0.507291 0.509618 0.575124 0.555118 0.610623 0.567989 0.621585 0.650242 0.716780 0.723456 0.744380 0.748050 0.797863 0.786182 0.871840 0.827217 0.868718 0.854339 0.853661 0.911342 0.912436 0.999652 1.027975 1.081225 1.078677 1.081792 1.127682 1.118267 1.078764 1.156088 1.080404 1.175865 1.097726 1.176592 1.136426 1.155210 1.252610 1.205602 1.168469 1.209827 1.267860 1.267148 1.262098 1.317006 1.373673 1.320864 1.319542 1.269226 1.228257 1.269898 1.283002 1.305906 1.287505 1.310162 1.421954 1.385728 1.435945 1.367609 1.378900 1.428405 1.455365 1.426486 1.505220 1.408075 1.432209 1.487091 1.402728 1.392223 1.399230 1.371191 1.466613 1.373362 1.445516 1.474257 1.445338 1.419456 1.492896 1.386847 1.390864 1.421288 1.419158 1.423879 1.492396 1.462663 1.464170 1.482859 1.588816 1.498297 1.516832 1.535560 1.631496 1.559473 1.577402 1.640501 1.613631 1.701681 1.649874 1.678785 1.679177 1.839205 1.695236 1.761371 1.692982 1.753378 1.796647 1.923321 1.940343 1.848152 1.820872 1.867936 1.908088 1.896204 1.867716 1.926834 1.905413 1.889834 1.856915 1.836610 1.860402 1.802575 1.928276 1.789124 1.817045 1.850131 1.805091 1.826063 1.923340 1.930266 1.862860 1.805974 1.850688 1.936237 1.833663 1.898439 1.878351 1.940926 1.949987 1.911442 2.013252 2.007972 1.823937 1.987620 1.915735 2.069466 1.958135 1.962143 2.032389 2.032908 2.040351 2.166161 2.009161 1.973585 1.930851 1.964135 1.906617 1.954552 1.989922 1.987622 2.092984 1.983283 1.947881 2.096423 1.969972 2.123921 2.059697 2.052295 1.990317 2.118135 2.101551 2.095129 1.933303 2.022560 2.074768 2.013351 2.060692 1.998047 1.953925 2.019504 2.163230 2.125807 2.180983 2.083180 2.116535 1.959695 2.093752 1.949887 2.000959 2.009199 1.951982 2.017748 1.971606 2.125310 2.029573 1.939081 1.924062 1.932219 1.998738 2.104455 2.101423 2.021497 2.091474 2.208179 2.057477 2.014852 1.872870 1.929257 2.169064 2.197995 2.202540 2.429993 2.419580 2.437061 2.391656 2.341059 2.530215 2.433838 2.525165 2.504704 2.518159 2.309756 2.309492 2.401929 2.333996 2.441166 2.427433 2.279273 2.279513 2.268700 2.260272 2.338268 2.396595 2.440454 2.451850 2.308003 2.413040 2.453619 2.494095 2.452524 2.469255 2.512754 2.501532 2.466679 2.361538 2.430809 2.460197 2.356221 2.377161 2.450612 2.468115 2.380618 2.450622 2.477556 2.366803 2.517423 2.337700 2.436929 2.313485 2.365913 2.328128 2.329686 2.365986 2.299820 2.437763 2.465133 2.338160 2.459676 2.425940 2.419010 2.331160 2.242853
2.134126 2.159110 2.212485 2.119396 2.093473 2.045854 1.912708 1.969468 1.799865 1.615444 1.539953 1.460734 1.434293 1.325354 1.163395 1.107480 0.995228 0.932888 0.870121 0.881133 0.819912 0.752400 0.663229 0.634137 0.601106 0.589545 0.554068 0.567740 0.549462 0.524919 0.488761 0.509597 0.463163 0.469965 0.464414 0.455425 0.460258 0.419553 0.420560 0.447085 0.424677 0.400291 0.416609 0.399202 0.424066 0.407045 0.403163 0.415552 0.409229 0.397128 0.378885 0.375404 0.365161 0.389523 0.353472 0.347841 0.370423 0.364348 0.441756 0.475336 0.526087 0.540539 0.562067 0.594899 0.582751 0.600981 0.586094 0.634372 0.637078 0.718095 0.734362 0.769077 0.747248 0.806060 0.797439 0.845892 0.808418 0.836725 0.838234 0.834385 0.880102 0.850352 0.940704 0.952697 1.015571 1.061205 1.091037 1.028807 1.116700 1.063850 1.092228 1.118837 1.135094 1.141053 1.185928 1.138651 1.175416 1.170106 1.148073 1.159690 1.180349 1.301254 1.234733 1.310019 1.294343 1.234014 1.359965 1.284542 1.338018 1.310318 1.233021 1.291898 1.374523 1.282580 1.406131 1.303955 1.352919 1.425728 1.375763 1.405064 1.420766 1.471207 1.528975 1.413858 1.488264 1.442052 1.517364 1.439548 1.412221 1.466799 1.362081 1.468360 1.328584 1.351190 1.464278 1.458813 1.469152 1.493585 1.483964 1.415276 1.393551 1.473277 1.539019 1.449217 1.509916 1.555779 1.555089 1.566738 1.557918 1.596520 1.588552 1.587138 1.526343 1.650156 1.695361 1.649850 1.715162 1.733787 1.796746 1.731664 1.807565 1.700841 1.790999 1.742513 1.734799 1.848058 1.913757 1.917116 1.837977 1.890113 1.866261 1.830049 1.815592 1.824075 1.879535 1.912542 1.967158 1.873573 1.809133 1.878558 1.813546 1.928635 1.745791 1.857458 1.886446 1.854036 1.881559 1.787724 1.758512 1.790251 1.825786 1.924006 1.807378 1.856099 1.814322 1.876078 1.884391 2.004342 2.020059 2.010628 1.903040 1.903586 2.014915 2.022120 2.064421 2.067242 1.935849 2.056814 2.004893 2.031833 2.035655 1.998253 2.080347 2.067438 1.963657 1.957100 1.889703 1.985806 2.047355 1.964635 1.925316 2.058362 2.028104 1.935002 2.038663 2.058124 2.037077 1.925838 1.949824 1.985430 2.038706 2.036970 1.968451 2.033143 2.096809 1.960476 2.084724 1.997270 2.089662 2.041358 1.967759 2.081036 2.002278 2.099393 1.993856 1.958008 1.898118 1.986699 2.042449 1.987497 1.922289 2.052989 2.099916 2.102989 2.067853 2.057514 1.929912 1.968852 2.036571 2.099000 2.050111 2.168120 2.144325 1.911997 1.923606 1.952037 2.041142 1.948244 2.033027 2.198059 2.362691 2.307446 2.204133 2.319310 2.366879 2.430027 2.481506 2.419730 2.491536 2.323375 2.458923 2.254759 2.359346 2.360196 2.439992 2.277051 2.417704 2.461621 2.329826 2.429699 2.422627 2.241246 2.349348 2.268970 2.284595 2.295176 2.214833 2.338526 2.428057 2.244572 2.371900 2.342638 2.376897 2.325982 2.408240 2.339894 2.387438 2.420803 2.528108 2.377249 2.437547 2.275115 2.426867 2.323792 2.324667 2.347287 2.414001 2.448034 2.250016 2.270336 2.438893 2.349916 2.283912 2.403476 2.243638 2.401483 2.312437 2.351690 2.346234 2.367952 2.248407
